-6.0823 2.0543 11.7991
-4.3009 2.1508 11.7386
-6.1474 2.0169 11.8886
1.6770 2.4441 11.6400
-6.0413 2.0539 11.9728
-6.1136 2.0163 12.0097
-4.0115 2.1562 12.0088
-3.9758 2.1437 12.0073
-1.6696 2.2507 11.9287
1.7888 2.4334 11.8461
-3.8688 2.1522 12.0738
-3.8342 2.1345 12.0723
-1.6322 2.2513 11.9959
-1.5601 2.2811 12.1005
-3.6888 2.1398 12.1913
-1.5202 2.2532 12.2009
-3.5771 2.1434 12.3086
-1.4828 2.2551 12.2725
-3.5101 2.1456 12.3764
-3.5079 2.1770 12.4119
-3.4352 2.1483 12.4416
3.5574 2.5191 12.2061
-5.8453 2.0424 12.5612
6.6606 2.6925 12.1358
-1.4068 2.2545 12.4432
-1.4062 2.2545 12.4449
-5.8218 2.0189 12.6651
-1.3711 2.2891 12.5144
-5.7359 2.0499 12.6976
-3.2549 2.1637 12.6130
-3.1898 2.1565 12.6806
-1.3325 2.2878 12.6181
-3.1450 2.1640 12.7493
2.3220 2.4654 12.5651
2.3363 2.4320 12.5742
-5.6952 2.0560 12.8715
3.6087 2.5151 12.5545
-5.6940 2.0549 12.9064
-3.0384 2.1612 12.8506
6.7791 2.6820 12.5101
-3.0366 2.1901 12.8860
-3.0010 2.1625 12.8843
-1.2187 2.2585 12.8237
-3.0005 2.1939 12.9199
-2.9639 2.1638 12.9181
-2.9645 2.1964 12.9537
-2.8998 2.1658 12.9859
3.5207 2.5057 12.8026
-5.6496 2.0348 13.1497
-2.8474 2.1673 13.0542
2.8054 2.4666 12.8868
3.4357 2.4998 12.8755
-5.6371 2.0179 13.2190
-2.7802 2.1695 13.1219
-2.7821 2.1952 13.1574
-5.5934 2.0189 13.2876
-1.0299 2.2589 13.2375
6.8313 2.6754 13.0052
-5.4292 2.0436 13.4574
-5.4614 2.0225 13.4582
-2.5638 2.1982 13.3951
-2.1425 2.1974 13.4082
6.8341 2.6906 13.1105
-2.2473 2.2201 13.4544
-0.9633 2.2591 13.4103
-5.3895 2.0243 13.5634
-2.1412 2.2231 13.4858
-2.0687 2.2002 13.5179
-5.3166 2.0380 13.6635
-0.9226 2.2592 13.5139
-2.0668 2.2089 13.5880
-2.0293 2.2065 13.6568
-0.8766 2.2685 13.6176
-1.8875 2.2231 13.7287
-0.8396 2.2754 13.6865
-1.7057 2.2323 13.8786
-0.8111 2.2591 13.8253
-5.0805 2.0313 14.0405
6.7845 2.6632 13.6721
-5.0216 2.0504 14.1088
-4.9860 2.0618 14.1428
-1.6474 2.2139 14.0431
-1.6441 2.2279 14.0684
-1.6266 2.2162 14.0925
-1.6250 2.2326 14.1034
-4.9474 2.0343 14.2460
-4.9288 2.0346 14.2804
-1.5834 2.2305 14.1631
-0.6233 2.2629 14.1340
6.7571 2.6545 13.8831
-0.6115 2.2629 14.1686
-1.5323 2.2232 14.2538
-1.5209 2.2269 14.2780
6.7251 2.6644 13.9895
-0.5404 2.2988 14.2719
-1.5070 2.2134 14.3420
-0.5721 2.2623 14.3074
6.7280 2.6496 14.0517
-1.5030 2.2074 14.3684
6.7230 2.6479 14.1294
-1.4769 2.2273 14.4404
6.7240 2.6472 14.1643
-0.4988 2.2872 14.4453
-0.5318 2.2617 14.4461
6.7244 2.6466 14.1993
-4.7411 2.0378 14.6242
6.6627 2.6762 14.2370
-4.7204 2.0382 14.6585
-1.4701 2.2273 14.5447
-4.6867 2.0607 14.6927
-5.8373 1.9777 14.7603
-5.7533 1.9899 14.7710
-5.7092 1.9915 14.7863
-5.9413 1.9718 14.7849
-5.6668 2.0035 14.7989
-5.6131 2.0213 14.8084
-5.6494 1.9846 14.8394
-5.5574 2.0031 14.8671
-5.3496 2.0277 14.8654
-0.3860 2.2991 14.6868
6.5812 2.6343 14.4493
-5.4245 2.0059 14.8735
-5.4045 2.0067 14.8768
-5.3826 2.0100 14.8784
-0.4640 2.2599 14.7239
-0.3494 2.2924 14.7204
-0.3144 2.2936 14.7192
6.5681 2.6330 14.4817
-5.6210 1.9681 14.9206
-5.4586 1.9999 14.9203
-4.5832 2.0351 14.8998
-1.4986 2.2044 14.7941
-0.2433 2.2951 14.7518
-4.5720 2.0468 14.9120
-5.5472 1.9621 14.9970
-0.4144 2.2628 14.8273
-0.3100 2.2664 14.8069
-5.5272 1.9604 15.0020
-4.5540 2.0842 14.9888
-0.2035 2.2717 14.8551
-4.5710 2.0474 15.0285
-5.2754 2.0211 15.0975
-4.6046 2.0250 15.0948
-6.0677 1.9727 15.1948
-4.6299 2.0394 15.1363
-4.6336 2.0447 15.1381
-1.5255 2.1980 15.0526
-6.0586 1.9564 15.2642
-5.0420 2.0156 15.2288
-4.6883 2.0417 15.2038
-4.6599 2.0294 15.1763
6.3351 2.6303 14.8431
-6.0283 1.9574 15.2971
-4.8492 2.0451 15.2596
-4.8459 2.0250 15.2768
-1.5211 2.1974 15.1800
-5.9225 1.9892 15.3651
6.3362 2.6118 14.9479
-5.8851 1.9884 15.4339
-0.0496 2.2714 15.2541
-5.8117 1.9934 15.5365
6.1716 2.6121 15.1638
-5.8085 1.9783 15.6061
6.1728 2.5988 15.1777
-5.8327 1.9610 15.6417
0.0272 2.2718 15.4425
6.0698 2.5956 15.2371
0.0418 2.2719 15.4770
6.0405 2.5901 15.2730
6.0118 2.5872 15.3440
-5.9414 1.9542 15.7855
-5.9414 1.9526 15.7828
6.0099 2.5864 15.3791
-5.9752 1.9525 15.8217
0.1239 2.2729 15.6493
0.1722 2.3097 15.6482
-5.9731 1.9573 15.8917
-5.9394 1.9838 15.8910
0.5231 2.3194 15.6712
-5.9378 1.9763 15.9259
0.1759 2.2847 15.7177
0.3856 2.2922 15.7105
5.9389 2.6005 15.5220
5.9746 2.5881 15.5205
5.9887 2.5826 15.5199
6.0086 2.5843 15.4844
-1.5003 2.2082 15.8100
0.1871 2.2742 15.7522
0.2459 2.3080 15.7507
0.3871 2.2869 15.7454
0.4907 2.2903 15.7419
5.8346 2.6083 15.5608
5.9427 2.5795 15.5565
0.3528 2.2953 15.7818
0.5275 2.3042 15.7758
5.7663 2.5976 15.5980
-5.8630 1.9526 16.0279
-1.5254 2.1820 15.8804
-5.8064 1.9543 16.0610
5.6654 2.5639 15.6710
-1.5387 2.1800 15.9509
0.5658 2.3101 15.8797
5.6312 2.5605 15.6927
5.6655 2.5627 15.6725
-1.5406 2.1792 15.9860
-1.5407 2.1785 16.0210
0.9533 2.3354 15.9717
5.5652 2.5605 15.8145
-1.5212 2.1782 16.0904
0.9194 2.3384 16.0079
-1.4895 2.2062 16.1248
0.6414 2.3168 16.0523
1.0959 2.3334 16.0367
5.5313 2.5843 15.8862
-1.5115 2.1767 16.1951
-1.5136 2.1759 16.2302
0.6812 2.2924 16.1518
0.8899 2.3237 16.1488
-1.5182 2.1768 16.2654
-1.5184 2.1751 16.2574
0.8918 2.3085 16.1835
1.2068 2.3363 16.2080
1.1853 2.3177 16.2084
5.3381 2.5380 16.0672
-5.9868 1.9308 16.4786
-5.7576 1.9578 16.4641
-5.6873 1.9574 16.4589
-5.5492 1.9608 16.4662
-5.4495 1.9722 16.4811
-5.4613 1.9513 16.4816
-5.0863 2.0054 16.4473
0.8585 2.3003 16.2207
1.2423 2.3501 16.2420
5.1200 2.5490 16.1101
5.1908 2.5342 16.1074
1.2444 2.3329 16.2767
5.0858 2.5556 16.1464
1.2459 2.3191 16.3004
5.1229 2.5378 16.1798
1.3158 2.3527 16.3446
-6.2272 1.9355 16.6358
-6.2595 1.9194 16.6366
-6.3300 1.9150 16.6735
-6.2956 1.9171 16.6570
-6.2613 1.9193 16.6377
1.3904 2.3241 16.4317
1.4254 2.3349 16.4455
1.5641 2.3613 16.4412
1.6000 2.3443 16.4396
1.6700 2.3389 16.4256
1.4261 2.3256 16.4532
1.5720 2.3328 16.4754
1.7406 2.3422 16.4454
1.7763 2.3437 16.4672
1.7782 2.3437 16.4684
4.6042 2.5238 16.3728
4.6393 2.5232 16.3716
4.7092 2.5259 16.3692
5.0591 2.5328 16.3571
5.1292 2.5217 16.3400
-6.5722 1.9265 16.7878
1.4972 2.3287 16.4849
1.8121 2.3451 16.4907
4.6768 2.4973 16.4049
4.7117 2.4987 16.4008
4.8514 2.5061 16.3962
1.8674 2.3471 16.5354
4.5725 2.5049 16.4437
4.6769 2.4968 16.4055
4.5741 2.4977 16.4785
1.9556 2.3506 16.5937
4.5393 2.5160 16.5151
3.8074 2.4693 16.5749
3.9477 2.4650 16.5699
-6.6001 1.8956 16.9492
2.0641 2.3548 16.6688
2.4124 2.3734 16.6547
3.8178 2.4479 16.6091
4.0540 2.4605 16.5953
4.4716 2.5168 16.5875
-6.5647 1.8972 16.9623
-6.4941 1.9005 16.9825
2.3783 2.3711 16.6784
3.1119 2.4181 16.6683
3.1213 2.4102 16.6678
3.2170 2.4154 16.6620
3.7749 2.4667 16.6460
4.2998 2.4728 16.6230
2.1701 2.3593 16.7274
2.6938 2.3968 16.7176
3.1124 2.4097 16.6718
-6.3207 1.9081 17.0589
2.2056 2.3608 16.7423
2.2409 2.3625 16.7518
3.0518 2.4052 16.7402
3.0786 2.4073 16.7052
2.8008 2.3917 16.7601
3.7440 2.4416 16.7317
2.9419 2.3984 16.7968
2.9768 2.4002 16.7942
3.6403 2.4355 16.7659
-6.2491 1.9085 17.2315
-6.2307 1.9081 17.3009
-1.7319 2.1672 17.1834
-6.2008 1.9084 17.3700
-1.7310 2.1726 17.2185
-6.1348 1.9098 17.4728
-1.7276 2.1755 17.3235
-6.1102 1.9105 17.5069
-1.7608 2.1418 17.3279
-6.0597 1.9118 17.5753
-1.7576 2.1402 17.4187
-1.7649 2.1389 17.4642
-1.8350 2.1332 17.5717
-6.0093 1.9104 17.7836
-6.1820 1.8990 17.9074
-2.0978 2.1145 17.8257
-6.4211 1.9103 18.1132
-6.4537 1.8873 18.1490
-6.4621 1.8796 18.1492
-2.3319 2.0989 17.9980
-6.4184 1.9047 18.1831
-2.4006 2.0946 18.0335
-6.2430 1.9229 18.2123
-2.5042 2.0972 18.0848
-2.4350 2.0925 18.0501
-6.1708 1.8934 18.2291
-6.1005 1.8968 18.2392
-6.0311 1.9128 18.2398
-5.9617 1.9249 18.2376
-5.8576 1.9436 18.2343
-2.5517 2.0850 18.1213
-2.6051 2.0810 18.1867
-5.8183 1.9103 18.3063
-5.7400 1.9132 18.3697
-2.6384 2.0977 18.2646
-2.5899 2.0796 18.2976
-5.6274 1.9165 18.5060
-2.4991 2.0950 18.3747
-2.4730 2.0904 18.3838
-5.6008 1.9175 18.5258
-2.3002 2.1134 18.4290
-5.5050 1.9216 18.5718
-5.3884 1.9279 18.6029
-5.3883 1.9271 18.6031
-5.2124 1.9359 18.6319
-2.1135 2.1138 18.5177
-5.2124 1.9358 18.6319
-4.4080 1.9808 18.6396
-4.4193 1.9772 18.6400
-2.0367 2.0970 18.5598
-4.1926 1.9885 18.6673
-2.0264 2.1536 18.5808
-3.8470 2.0160 18.6907
-3.8128 2.0323 18.6898
-1.6428 2.1343 18.7404
-3.7020 2.0373 18.8611
-1.4987 2.1431 18.8204
-3.7233 2.0080 18.9314
-1.4626 2.1279 18.8552
-1.4253 2.1431 18.8692
-1.4172 2.1297 18.8880
-1.3562 2.1471 18.9212
-3.6725 2.0080 19.0698
-1.3184 2.1331 18.9774
-1.2839 2.1502 18.9888
-3.6587 2.0081 19.1043
-3.6570 2.0081 19.1080
-1.2103 2.1516 19.0914
-3.6072 2.0088 19.2076
-3.5881 2.0091 19.2420
-1.2171 2.1349 19.1613
-2.6715 2.0741 19.3162
-3.5226 2.0099 19.3798
-2.5307 2.0631 19.3136
-2.8835 2.0431 19.3931
-2.2501 2.0774 19.3374
-2.2150 2.0791 19.3419
-2.1096 2.0844 19.3555
-2.9173 2.0407 19.4292
-2.9116 2.0411 19.4219
-2.0393 2.0879 19.3661
-2.9457 2.0498 19.4654
-1.7585 2.1020 19.3962
-1.6533 2.1074 19.4019
-1.5484 2.1129 19.4028
-3.4312 2.0247 19.5870
-2.9403 2.0385 19.6051
-3.4121 2.0097 19.6912
-3.3856 2.0097 19.7603
-2.9021 2.0673 19.7444
-3.3701 2.0099 19.7948
-2.8646 2.0427 19.7777
-3.3522 2.0128 19.8292
-2.8180 2.0378 19.8460
-2.7906 2.0385 19.8839
-2.7410 2.0399 19.9485
-3.2622 2.0116 20.0012
-3.2400 2.0130 20.0355
-2.6839 2.0415 20.0166
-2.6448 2.0429 20.0537
-3.1686 2.0138 20.1381
-2.6086 2.0441 20.0872
-3.0947 2.0280 20.2058
-3.0938 2.0163 20.2141
-2.5168 2.0464 20.2210
-2.9873 2.0201 20.3070
-2.5029 2.0457 20.2905
-2.5144 2.0431 20.3960
-2.7715 2.0290 20.4295
-2.8164 2.2685 6.0743
-2.7814 2.2703 6.0770
-2.7817 2.2816 6.0836
-2.7110 2.2738 6.0897
-2.6764 2.2995 6.1152
3.2974 2.6033 5.9119
-3.7579 2.2177 6.1547
-2.5350 2.2981 6.1453
6.4427 2.7583 5.8310
-4.5195 2.1760 6.2475
-4.4892 2.1777 6.2425
-2.4643 2.2856 6.1435
3.7189 2.6134 5.9459
5.9551 2.7334 5.8914
6.5130 2.7618 5.8406
6.5838 2.7676 5.8700
-4.5240 2.1757 6.2482
6.6145 2.7659 5.9039
-4.8012 2.1624 6.3271
-4.7314 2.1635 6.3183
6.5854 2.7830 5.9403
-4.9759 2.1770 6.3685
-2.0912 2.3027 6.2700
2.7449 2.5595 6.0947
6.6233 2.7650 5.9737
-5.3303 2.1289 6.4851
-5.3202 2.1295 6.4820
-1.9350 2.3090 6.3697
4.1797 2.6606 6.1623
-5.3893 2.1254 6.5066
4.2864 2.6387 6.1748
4.3218 2.6403 6.1867
-5.4236 2.1233 6.5243
2.4365 2.5492 6.2913
4.3568 2.6682 6.2263
-5.5245 2.1166 6.5968
-5.4919 2.1188 6.5717
-1.7817 2.3151 6.4695
4.4622 2.6463 6.2572
6.6021 2.7598 6.1845
-5.6286 2.1139 6.6704
-5.5944 2.1295 6.6695
-1.7169 2.3176 6.5151
-1.6836 2.3190 6.5362
-8.5265 1.9554 6.8014
-8.4569 1.9592 6.7907
-8.4218 1.9610 6.7952
-7.6888 2.0002 6.7540
-5.7671 2.1018 6.7034
-5.6630 2.1077 6.6801
-1.6811 2.3191 6.5380
-8.3163 1.9662 6.8124
-8.2462 1.9698 6.8149
-8.2113 1.9717 6.8140
-5.8015 2.0997 6.7185
4.7501 2.6589 6.3875
5.0619 2.6760 6.3482
-8.4906 1.9861 6.8732
4.8182 2.6890 6.4207
4.8533 2.6879 6.4194
4.9585 2.6697 6.3911
4.9930 2.6717 6.3795
2.1581 2.5200 6.5457
-6.7404 2.0545 6.8834
-6.0422 2.0848 6.8376
2.1324 2.5180 6.5809
-8.4511 1.9691 6.9766
-6.1605 2.0775 6.8985
-8.4493 1.9572 7.0114
-1.4200 2.3282 6.7724
-6.5277 2.0571 6.9557
-6.4586 2.0926 6.9793
-6.4220 2.0623 6.9762
2.0659 2.5187 6.6890
-1.3558 2.3303 6.8393
2.0401 2.5104 6.7248
-8.3788 1.9571 7.1140
-8.3404 1.9750 7.1480
-1.3196 2.3315 6.8756
1.9996 2.5071 6.7866
-8.3049 1.9887 7.1820
-1.2473 2.3340 6.9422
6.3687 2.7394 6.7177
-1.1289 2.3383 7.0426
1.8881 2.4983 6.9400
1.8995 2.4992 6.9240
-8.1606 1.9991 7.3173
6.3017 2.7322 6.8003
-1.0669 2.3462 7.1106
6.2471 2.7281 6.8618
-1.0306 2.3450 7.1444
-1.0275 2.3416 7.1442
1.8194 2.4926 7.0474
6.2344 2.7272 6.8752
-8.0728 1.9672 7.4187
1.8013 2.4910 7.0830
1.7997 2.5224 7.1187
6.1668 2.7224 6.9434
-0.9580 2.3439 7.2152
-0.9220 2.3672 7.2811
-7.9723 1.9692 7.5904
-7.5523 1.9899 7.6579
-7.4472 1.9953 7.6624
-7.3770 1.9988 7.6713
-7.3417 2.0005 7.6795
-7.1649 2.0093 7.7380
-0.7034 2.3518 7.4951
-0.7044 2.3859 7.5190
-7.1648 2.0086 7.7381
-7.0942 2.0120 7.7585
6.0144 2.7070 7.3249
1.6731 2.4761 7.5076
-6.9238 2.0194 7.8349
-6.9164 2.0197 7.8402
-6.8464 2.0394 7.8675
5.9700 2.7026 7.4315
-6.8104 2.0438 7.9014
5.9398 2.7100 7.4677
-6.8439 2.0220 7.9159
-6.7748 2.0542 7.9354
-0.4844 2.3582 7.7594
-6.8399 2.0286 8.0423
5.8386 2.7264 7.6116
5.8410 2.6921 7.6271
-6.8725 2.0494 8.1488
-6.9061 2.0463 8.1850
-0.3371 2.3618 7.9704
-0.2263 2.3652 8.0974
-7.0044 2.0292 8.3633
-7.0842 1.9994 8.4356
-7.0715 2.0006 8.4071
-7.0366 2.0209 8.4343
-7.1069 1.9975 8.4714
-7.1380 1.9968 8.5075
-7.0350 2.0355 8.5045
-7.1374 2.0067 8.5426
-0.0825 2.4029 8.3032
-0.0084 2.3713 8.3705
-0.0090 2.4053 8.4057
-7.2015 2.0075 8.7200
5.2989 2.6508 8.2947
5.0384 2.6298 8.6784
-7.2549 1.9840 9.1768
-7.2210 2.0055 9.1760
0.3607 2.3795 8.9528
4.9080 2.6200 8.8332
-7.3225 1.9706 9.2840
4.8974 2.6187 8.8686
-7.3399 1.9690 9.3196
1.7584 2.4509 9.0453
1.7648 2.4540 9.0802
-7.3845 1.9640 9.4579
-7.3864 1.9618 9.5663
4.9489 2.6161 9.1469
0.5979 2.3839 9.3649
0.6194 2.3844 9.3992
4.9883 2.6184 9.2507
-3.9877 2.1424 9.5909
0.6222 2.3844 9.4043
-3.6363 2.1569 9.6350
0.6631 2.4069 9.5113
-7.3366 1.9593 9.8296
-4.6482 2.1365 9.7540
-4.5423 2.1076 9.7298
0.6984 2.4056 9.5829
-3.3197 2.1714 9.7432
-4.7488 2.0950 9.8240
-4.7145 2.0971 9.8058
-4.9021 2.0848 9.9371
-3.0668 2.1814 9.9097
0.8434 2.4103 9.8329
-7.1131 1.9879 10.2578
-2.8599 2.1884 10.1127
0.9208 2.4135 9.9987
-5.1908 2.0914 10.2275
-2.8177 2.1899 10.1463
2.1278 2.4522 9.9782
-2.7780 2.1914 10.1780
-7.0369 1.9843 10.4302
-7.0531 1.9619 10.4654
1.0137 2.3873 10.1958
-5.2187 2.0919 10.4386
-2.5977 2.1978 10.3337
-2.5859 2.1982 10.3485
2.2471 2.4545 10.1842
2.3200 2.4564 10.2868
2.3323 2.4567 10.3021
5.6513 2.6324 10.2077
-6.9577 1.9631 10.6652
-6.9233 1.9795 10.6713
-6.9016 1.9632 10.8104
-5.2072 2.0531 10.7528
-6.8673 1.9637 10.8792
-5.2747 2.0724 10.8255
5.8342 2.6376 10.4360
2.5515 2.4626 10.5940
-5.2018 2.0506 10.8926
5.8856 2.6387 10.5157
-5.2011 2.0507 10.8940
-5.1836 2.0509 10.9270
-6.8066 1.9648 10.9838
-2.2646 2.2069 10.8628
-5.1270 2.0639 11.0304
-5.0879 2.0540 11.0288
-6.6609 1.9699 11.1524
2.7361 2.4673 10.8510
-6.6239 1.9700 11.2107
-4.9126 2.0745 11.1632
-4.9122 2.0889 11.1984
-4.8059 2.0663 11.1943
-4.8036 2.0657 11.1942
-2.0989 2.2091 11.1023
-2.0830 2.2426 11.1023
-4.8763 2.0957 11.2323
-4.7701 2.0670 11.2164
2.8092 2.4688 10.9704
-6.4818 2.0079 11.3219
1.4183 2.3944 11.0527
-4.7690 2.0992 11.2987
-4.6968 2.1028 11.3663
-4.5968 2.0733 11.3623
2.9198 2.4749 11.1068
1.4668 2.3942 11.1911
-4.6243 2.1025 11.4338
-4.5534 2.0860 11.4310
-4.4822 2.0858 11.4636
-4.4107 2.1038 11.5315
-6.4334 1.9792 11.6700
-4.2664 2.0856 11.6197
-4.2576 2.0859 11.6309
-1.8775 2.2121 11.5499
-1.8602 2.2124 11.5844
-6.3938 1.9712 11.7735
-6.3582 1.9728 11.8073
3.1774 2.4879 11.4833
-6.2168 1.9923 11.8728
-4.1191 2.0910 11.8363
-4.1157 2.0893 11.8361
3.2315 2.4791 11.5863
-4.0830 2.0905 11.8658
-4.0829 2.1143 11.9055
-4.0238 2.0929 11.9030
-1.7065 2.2424 11.8597
-1.7191 2.2144 11.8597
1.7510 2.3978 11.7767
-6.1056 2.0130 12.0794
-1.6670 2.2240 11.9631
-1.6528 2.2153 11.9975
-1.6321 2.2502 11.9974
3.3551 2.4809 11.8272
3.3756 2.4813 11.8615
-1.5899 2.2166 12.1004
6.5902 2.6505 11.8223
-6.1468 1.9728 12.3604
-3.5792 2.1091 12.2706
-1.5336 2.2175 12.2035
6.6208 2.6500 11.9263
-3.5431 2.1114 12.3069
1.9696 2.4035 12.1087
-3.5067 2.1115 12.3443
-5.9863 2.0129 12.4956
-1.4796 2.2183 12.3080
-5.9350 1.9780 12.6683
3.5875 2.4831 12.3446
-3.2179 2.1275 12.6111
-5.8714 1.9857 12.7363
6.7260 2.6482 12.3079
-3.1814 2.1227 12.6467
3.6027 2.4819 12.4491
-3.1083 2.1305 12.7474
-1.3265 2.2191 12.6854
2.3238 2.4190 12.5544
-3.0718 2.1263 12.7811
2.3338 2.4038 12.5666
2.3514 2.3976 12.5875
6.7759 2.6481 12.4462
-3.0722 2.1559 12.8166
-1.2831 2.2200 12.7553
3.6000 2.5025 12.5896
3.6000 2.4797 12.5551
6.7880 2.6481 12.4808
-5.8292 1.9784 12.9362
6.7974 2.6479 12.5155
-2.9635 2.1324 12.8825
-1.2471 2.2206 12.8241
-5.7915 1.9795 13.0136
-1.2166 2.2402 12.8584
3.5696 2.4756 12.6855
-5.7752 1.9790 13.0481
-1.2174 2.2208 12.8931
-5.7205 2.0059 13.0816
-2.8179 2.1341 13.0418
-1.1764 2.2213 12.9785
2.7339 2.4338 12.8445
3.4716 2.4675 12.8387
-2.7817 2.1415 13.0864
3.4346 2.4976 12.8755
-1.1387 2.2218 13.0570
2.9483 2.4421 12.9266
-2.7457 2.1681 13.1557
3.0895 2.4451 12.9590
-5.6419 1.9813 13.2917
-2.6733 2.1690 13.2232
-5.5686 1.9848 13.3912
-5.5708 1.9831 13.3912
-1.0530 2.2228 13.2376
6.8306 2.6656 12.9700
-5.5327 1.9918 13.4251
-2.5643 2.1625 13.3244
-2.5283 2.1442 13.3228
-5.5318 1.9842 13.4395
-1.0237 2.2230 13.3067
-2.2469 2.1676 13.3835
-2.1427 2.1636 13.3475
-2.3158 2.1686 13.4209
-2.0467 2.1659 13.3914
-5.4438 1.9865 13.5620
-5.4213 1.9870 13.5992
-0.9600 2.2230 13.4796
-0.9479 2.2234 13.5142
-0.9483 2.2229 13.5142
-1.9925 2.1745 13.5900
-1.9902 2.1849 13.6247
-5.2412 2.0264 13.8008
-1.9173 2.1961 13.6861
-1.8635 2.1706 13.6676
-1.7967 2.1660 13.6940
-0.9081 2.2242 13.6529
-0.8731 2.2462 13.6871
-5.2290 1.9918 13.8698
-1.7313 2.1795 13.7552
-1.7043 2.1717 13.8024
-1.6971 2.1601 13.8199
-1.6907 2.1885 13.8480
-5.1533 1.9938 13.9723
-1.6827 2.1934 13.8773
-1.6792 2.1711 13.8733
-5.1276 1.9990 14.0065
-5.1314 1.9943 14.0066
-0.8660 2.2205 13.8616
6.8377 2.6291 13.5996
-1.6518 2.1782 13.9959
-1.6456 2.2008 14.0339
-5.0229 1.9967 14.1780
-1.6205 2.2032 14.1041
6.7906 2.6380 13.8116
-4.9782 1.9977 14.2465
-1.6009 2.1893 14.1654
-1.5833 2.2083 14.1764
-1.5453 2.2114 14.2430
6.7635 2.6232 14.0224
-1.5271 2.1980 14.3248
6.7298 2.6435 14.0940
-4.8321 2.0000 14.5216
-1.5111 2.1921 14.3872
-1.5002 2.1856 14.4533
6.7846 2.6155 14.1617
-0.5309 2.2543 14.4809
6.7705 2.6249 14.2324
-4.7216 2.0362 14.6585
6.7364 2.6303 14.2687
-5.8408 1.9425 14.7660
-5.8348 1.9428 14.7658
-5.7311 1.9782 14.7855
-6.0367 1.9314 14.8077
-5.7645 1.9460 14.7888
-1.5027 2.1734 14.6536
-5.7204 1.9514 14.8177
-5.4217 2.0115 14.8461
6.6714 2.6054 14.3807
-5.3680 1.9953 14.8640
-5.3566 2.0024 14.8649
-5.3458 2.0099 14.8678
-0.4884 2.2487 14.6895
6.6198 2.6014 14.4474
-6.1482 1.9235 14.9165
-5.6683 1.9480 14.8992
-5.3798 1.9916 14.8755
-4.6222 2.0044 14.8646
-5.6471 1.9570 14.9116
-5.6346 1.9393 14.9638
-5.4621 1.9877 14.9624
-4.5747 2.0266 14.9238
-0.4840 2.2330 14.7941
6.5715 2.6161 14.5544
-5.5970 1.9397 14.9999
-5.4982 1.9659 14.9964
-5.4270 1.9869 15.0055
-5.5106 1.9529 15.0187
-5.4754 1.9638 15.0114
-5.4204 1.9727 15.0382
-5.5054 1.9380 15.0438
-5.3761 1.9946 15.0466
-4.5718 2.0205 15.0336
-0.4574 2.2219 14.8981
-0.4439 2.2221 14.9261
-0.3748 2.2438 14.9306
-0.1660 2.2699 14.9238
-4.5937 1.9974 15.0850
-1.5268 2.1933 15.0050
-0.4077 2.2265 14.9665
-0.3030 2.2290 14.9540
-6.1355 1.9291 15.1964
-1.5467 2.1621 15.0402
6.5089 2.5900 14.7340
6.4055 2.6005 14.8051
-6.1327 1.9176 15.2609
-6.0984 1.9358 15.2653
-4.6504 1.9957 15.1736
-0.1256 2.2580 15.0623
-5.0132 1.9918 15.2595
-4.6840 1.9882 15.2138
-5.0177 1.9475 15.2858
-4.8829 1.9972 15.2938
-4.7684 1.9880 15.2827
-4.7351 1.9727 15.2652
6.3386 2.6086 14.9127
-4.9098 1.9750 15.3012
-4.8784 1.9737 15.3069
-4.7965 1.9816 15.2977
6.3730 2.5788 14.9460
-4.8308 1.9598 15.3120
-5.9854 1.9213 15.4715
6.4017 2.5777 15.0851
-0.0438 2.2346 15.3672
0.0288 2.2590 15.4772
6.0888 2.5577 15.2708
0.0660 2.2634 15.5461
-5.9756 1.9376 15.7864
-1.4892 2.1537 15.6335
6.0424 2.5636 15.4126
-6.0081 1.9340 15.8575
-1.4984 2.1519 15.7038
6.0434 2.5665 15.4477
6.0627 2.5529 15.4467
-6.0271 1.9110 15.8928
0.1445 2.2371 15.7530
0.4576 2.2795 15.7428
-5.9384 1.9137 15.9948
0.2073 2.2390 15.8209
0.2163 2.2502 15.8208
0.3900 2.2779 15.8152
5.9448 2.5437 15.6067
-5.8252 1.9227 16.0611
-1.5507 2.1450 15.9157
0.4621 2.2601 15.8474
0.3235 2.2441 15.8699
0.3933 2.2479 15.8651
5.6322 2.5505 15.7069
5.7033 2.5292 15.7012
-5.6979 1.9173 16.1279
-1.5551 2.1435 15.9859
0.5337 2.2775 15.9153
5.5985 2.5489 15.7431
5.6344 2.5323 15.7416
0.5318 2.2535 15.9499
-1.5592 2.1423 16.0363
0.5363 2.2536 15.9565
0.5711 2.2767 15.9840
-1.5574 2.1436 16.0910
5.6023 2.5445 15.8480
5.6368 2.5229 15.8464
0.9928 2.2965 16.0397
1.0619 2.3136 16.0375
5.6385 2.5229 15.8492
-1.5558 2.1406 16.1347
5.6783 2.5238 15.9150
1.0935 2.2792 16.1409
0.9229 2.2695 16.1817
1.1028 2.2795 16.1531
1.1195 2.2799 16.1751
5.5385 2.5377 16.0252
5.6538 2.5204 16.0209
5.6787 2.5222 15.9987
-5.6731 1.9117 16.4488
-5.6044 1.9183 16.4534
-5.5868 1.9146 16.4568
0.7197 2.2585 16.2011
0.7546 2.2757 16.2228
0.8950 2.2674 16.2138
1.1734 2.3058 16.2087
-6.1328 1.8939 16.4917
-6.0508 1.8999 16.4777
0.8608 2.2652 16.2351
1.1725 2.2814 16.2433
5.3999 2.5056 16.0996
-6.1592 1.8923 16.5033
5.3679 2.5037 16.1120
-5.2096 1.9518 16.5182
-6.2614 1.8984 16.6013
1.3213 2.2861 16.4028
-6.5394 1.8683 16.7156
-6.4674 1.8725 16.6929
-1.6684 2.1266 16.5500
1.7056 2.3356 16.4358
5.2001 2.4910 16.3138
-6.6338 1.8626 16.7538
-1.6462 2.1501 16.5846
1.4626 2.3165 16.4790
1.6024 2.3215 16.4742
5.1663 2.4925 16.3527
1.5344 2.3061 16.5113
1.5694 2.3060 16.5101
1.8108 2.3098 16.5017
5.1666 2.4884 16.3568
4.7493 2.4653 16.4242
4.7842 2.4672 16.4213
-1.6419 2.1361 16.6893
-1.6545 2.1247 16.6896
4.6482 2.4590 16.4753
1.9578 2.3156 16.6016
1.9580 2.3156 16.6017
4.6223 2.4569 16.5112
4.6463 2.4589 16.4769
-1.6241 2.1249 16.7585
1.9935 2.3171 16.6239
4.6036 2.4553 16.5468
-1.6035 2.1398 16.7931
2.0633 2.3524 16.6688
4.5800 2.4536 16.5826
-6.5973 1.8602 16.9783
2.0652 2.3198 16.6746
3.2180 2.3982 16.6643
4.2318 2.4343 16.6260
4.4401 2.4718 16.6229
4.4754 2.4662 16.6215
4.5112 2.4525 16.6200
-1.6352 2.1451 16.8994
2.2779 2.3294 16.7552
2.8027 2.3568 16.7628
3.0469 2.3699 16.7451
3.0159 2.3677 16.7759
3.5015 2.3937 16.7445
-6.2789 1.9034 17.1274
-1.6989 2.1169 16.9712
-6.2150 1.8727 17.3698
-1.7980 2.1071 17.2093
-1.7644 2.1413 17.2191
-6.1629 1.8991 17.4385
-6.1480 1.8742 17.4726
-1.8001 2.1048 17.3248
-1.7595 2.1383 17.3590
-6.1241 1.8747 17.5084
-6.0113 1.9079 17.7837
-1.9567 2.0942 17.6803
-6.1075 1.8689 17.8564
-1.9950 2.0870 17.7166
-6.2494 1.8601 17.9278
-6.2838 1.8580 17.9440
-2.0918 2.0802 17.8094
-6.5003 1.8420 18.1849
-2.3638 2.0616 18.0337
-6.4871 1.8420 18.2194
-6.2383 1.8545 18.2459
-6.1680 1.8580 18.2562
-2.5349 2.0506 18.1415
-6.0612 1.8626 18.3090
-5.7796 1.8763 18.3617
-2.6019 2.0706 18.2629
-2.5774 2.0662 18.2928
-2.5319 2.0383 18.3208
-5.6660 1.8802 18.4716
-2.0935 2.0546 18.5309
-2.0047 2.0616 18.5761
-1.9765 2.0683 18.5896
-1.9549 2.0619 18.6010
-3.9153 1.9837 18.6925
-3.8811 1.9993 18.6916
-1.9323 2.0736 18.6101
-1.8533 2.0757 18.6528
-3.8412 1.9696 18.7891
-1.6695 2.0945 18.7559
-1.5820 2.0877 18.8205
-1.4950 2.0909 18.8756
-1.3898 2.1209 18.9220
-1.3536 2.1212 18.9557
-1.2818 2.1334 19.0235
-3.6895 1.9711 19.1255
-3.6554 1.9975 19.1390
-1.2414 2.1220 19.1620
-1.2743 2.1033 19.1978
-3.5947 1.9725 19.3116
-3.5780 1.9727 19.3461
-3.5768 1.9727 19.3486
-2.7729 2.0264 19.3539
-3.5492 1.9729 19.4151
-2.1079 2.0496 19.3520
-2.0142 2.0543 19.3629
-1.3742 2.0945 19.3413
-1.7221 2.0692 19.3821
-3.5234 1.9729 19.4843
-3.4664 2.0047 19.5529
-2.9216 2.0035 19.5338
-3.4877 1.9728 19.5881
-3.4633 1.9727 19.6573
-3.4216 1.9729 19.7609
-3.3481 1.9798 19.8986
-3.3315 1.9743 19.9329
-3.2906 1.9751 20.0016
-3.2754 1.9967 20.0014
-3.2373 1.9850 20.0699
-2.6791 2.0068 20.0194
-2.5582 2.0106 20.1517
-2.5342 2.0275 20.1862
-2.5323 2.0107 20.2161
-2.5171 2.0101 20.2904
-2.8764 1.9896 20.3772
-2.8409 1.9911 20.3944
-2.8167 1.9921 20.4056
-2.5262 2.0100 20.3958
-2.6290 2.0011 20.4513
-3.6521 2.1887 6.1269
3.1947 2.5516 5.9053
3.4035 2.5631 5.8751
3.4385 2.5650 5.8749
3.6492 2.5756 5.8991
-4.1047 2.1639 6.1846
-2.4282 2.2529 6.1221
3.6844 2.5772 5.9074
3.7549 2.5806 5.9229
-4.4182 2.1467 6.2213
-2.3225 2.2580 6.1461
-2.2517 2.2612 6.1698
6.0263 2.7006 5.8700
6.1305 2.7065 5.8514
6.6204 2.7320 5.8588
-4.6957 2.1310 6.2848
-2.2162 2.2628 6.1837
-2.1728 2.2647 6.2021
6.6568 2.7343 5.9019
-2.0747 2.2933 6.2692
6.6590 2.7379 5.9720
-2.0026 2.2719 6.2908
2.6429 2.5185 6.1260
-5.2501 2.0991 6.4338
5.4730 2.6890 6.0826
5.5082 2.6699 6.0564
-5.3192 2.0950 6.4578
4.2510 2.6353 6.1593
4.3573 2.6355 6.1907
4.4184 2.6103 6.1881
5.4056 2.6632 6.1242
6.6521 2.7288 6.1121
6.6298 2.7411 6.1482
-1.7519 2.2817 6.4679
-1.7044 2.2835 6.5013
-8.4910 1.9229 6.7637
-5.7670 2.0819 6.6747
-8.4206 1.9264 6.7743
-8.3198 1.9313 6.7963
-7.7216 1.9633 6.7616
-1.6084 2.2897 6.5681
-1.6063 2.2873 6.5680
2.2339 2.4912 6.4306
-8.5585 1.9181 6.8322
-8.2097 1.9368 6.8055
-8.1049 1.9424 6.8022
4.9945 2.6370 6.3675
4.9931 2.6708 6.3792
-5.9725 2.0546 6.7762
-8.5209 1.9197 6.9082
-8.5214 1.9185 6.9082
-6.9150 2.0043 6.8266
2.1130 2.4819 6.5816
-1.3918 2.2947 6.7708
-8.4164 1.9207 7.0797
6.4690 2.7386 6.5741
-1.3186 2.2970 6.8502
-1.3195 2.3291 6.8740
2.0018 2.4726 6.7605
6.4716 2.7117 6.6085
-1.2473 2.3330 6.9416
6.4387 2.7069 6.6647
6.3380 2.6993 6.7859
6.3044 2.6968 6.8242
-1.0659 2.3058 7.0773
6.2722 2.6944 6.8604
-8.0967 1.9316 7.3839
6.2707 2.6943 6.8620
6.2032 2.6899 6.9328
6.2037 2.6894 6.9327
6.2370 2.6919 6.8978
-8.0609 1.9322 7.4527
-0.9572 2.3095 7.1846
-0.9213 2.3317 7.2454
6.1355 2.6910 7.0052
6.0996 2.6812 7.0763
1.7157 2.4473 7.2954
1.7063 2.4462 7.3307
-7.4803 1.9585 7.6652
-7.3751 1.9648 7.6745
6.0385 2.6960 7.2539
-7.1627 1.9736 7.7459
6.0289 2.6721 7.3588
-6.9785 1.9815 7.8361
-6.9143 1.9986 7.8692
-6.8804 2.0186 7.8684
5.9432 2.6685 7.5019
-0.4843 2.3547 7.7559
5.9435 2.6648 7.5045
-6.9090 1.9880 8.0089
-6.9230 1.9810 8.0093
5.9101 2.6622 7.5496
-6.8741 2.0119 8.0432
-6.9418 1.9903 8.0802
1.6201 2.4315 7.8589
-7.0079 2.0054 8.2229
5.7018 2.6466 7.7901
-7.0903 1.9674 8.2601
1.6241 2.4303 7.9988
-7.2065 1.9672 8.5093
-0.0369 2.3362 8.3004
5.3395 2.6191 8.2352
5.2313 2.6109 8.3664
-7.2663 1.9760 8.8268
0.2144 2.3418 8.6886
1.6834 2.4187 8.6924
5.0903 2.5993 8.5813
5.0671 2.5974 8.6171
5.0393 2.5953 8.6525
5.0055 2.5958 8.6892
-7.2898 1.9592 9.1426
0.3625 2.3451 8.9235
0.3618 2.3772 8.9527
0.4130 2.3458 9.0204
4.8931 2.5835 8.8681
0.4307 2.3461 9.0548
4.9012 2.5819 8.9729
0.4746 2.3469 9.1302
0.5118 2.3477 9.1918
1.7802 2.4143 9.1840
1.8447 2.4481 9.3575
1.8475 2.4139 9.3858
-3.8104 2.1236 9.6194
-3.5308 2.1576 9.6452
-4.4717 2.0880 9.7119
-3.4246 2.1593 9.6766
5.0644 2.5940 9.3877
5.0661 2.5825 9.3874
-3.3878 2.1334 9.7099
-4.7537 2.0590 9.8614
-3.2439 2.1430 9.8101
-4.8507 2.0805 9.9002
-3.1852 2.1415 9.8431
-3.1008 2.1449 9.8949
-3.0820 2.1456 9.9096
-3.0648 2.1462 9.9246
-7.2542 1.9379 10.1567
-4.9478 2.0446 10.0805
-2.9557 2.1502 10.0453
5.3222 2.5891 9.7421
-2.9196 2.1529 10.0792
2.0745 2.4157 9.9093
5.3587 2.5899 9.7977
2.0757 2.4158 9.9112
5.3591 2.5899 9.7982
5.3828 2.5905 9.8319
-7.1958 1.9227 10.2945
-7.1452 1.9539 10.2933
-5.0819 2.0414 10.2578
2.1768 2.4178 10.0809
5.4693 2.5928 9.9481
2.1871 2.4180 10.0990
2.1963 2.4181 10.1153
-2.6013 2.1623 10.3484
1.0466 2.3481 10.2233
-2.5782 2.1629 10.3827
2.2613 2.4195 10.2202
2.2836 2.4201 10.2524
-7.0285 1.9375 10.6042
2.3099 2.4208 10.2865
-7.0375 1.9243 10.6393
-7.0253 1.9243 10.6739
5.6895 2.5986 10.2454
2.4156 2.4237 10.4230
-6.9863 1.9240 10.7934
1.1870 2.3832 10.5459
-6.9481 1.9243 10.8848
-6.9126 1.9342 10.9153
-5.1308 2.0231 10.8547
5.8730 2.6037 10.4805
-6.9110 1.9264 10.9502
-5.1653 2.0366 10.8911
2.5547 2.4274 10.6094
-6.8947 1.9251 10.9846
-2.2368 2.1702 10.9313
-6.8002 1.9276 11.1143
-4.9850 2.0499 11.0602
5.9835 2.6062 10.6533
-6.7639 1.9287 11.1540
-2.1881 2.1759 10.9997
-6.6592 1.9601 11.1872
-4.8421 2.0439 11.1252
1.3401 2.3585 10.8811
2.7384 2.4351 10.8672
-6.7100 1.9302 11.2234
2.7386 2.4320 10.8690
6.0714 2.6081 10.7889
-6.6895 1.9306 11.2578
1.3989 2.3596 10.9827
6.0935 2.6086 10.8231
-4.7344 2.0614 11.2268
-4.6988 2.0500 11.2253
-6.5846 1.9650 11.3247
-4.6270 2.0394 11.2577
-2.0449 2.1749 11.2049
1.4448 2.3600 11.0862
2.8494 2.4346 11.0371
-4.5186 2.0424 11.3565
-4.5183 2.0610 11.3944
-4.4825 2.0464 11.3929
-1.9874 2.1760 11.3080
1.4763 2.3597 11.1902
2.9223 2.4367 11.1224
6.2169 2.6111 11.0290
2.9953 2.4389 11.2092
1.5300 2.3602 11.3107
-4.2669 2.0562 11.5606
-4.2305 2.0535 11.5943
-1.9043 2.1763 11.5152
-4.2032 2.0537 11.6284
-6.5353 1.9293 11.7427
-1.8529 2.1770 11.6185
3.1435 2.4421 11.4471
6.3917 2.6146 11.3258
-6.3928 1.9635 11.8084
1.6622 2.3621 11.5690
6.4430 2.6150 11.4415
-3.9403 2.0664 11.8997
1.7194 2.3625 11.7072
-6.3142 1.9369 12.0153
-6.2797 1.9467 12.0143
-3.8686 2.0805 11.9675
1.7552 2.3630 11.7760
3.2930 2.4446 11.7234
3.2931 2.4446 11.7237
-3.8326 2.0842 12.0013
-1.7014 2.1892 11.9287
-6.2406 1.9597 12.1533
-6.3084 1.9328 12.1781
-6.2049 1.9702 12.1872
-1.6100 2.1805 12.1005
-6.2349 1.9430 12.2929
-3.5786 2.0747 12.2360
3.4420 2.4474 11.9836
-3.5441 2.0758 12.2713
-1.5516 2.1815 12.2035
-1.5513 2.1815 12.2042
-3.5067 2.1082 12.3406
-6.1248 1.9599 12.4645
-3.4704 2.1078 12.3743
-6.1577 1.9347 12.4889
-3.4339 2.0796 12.3745
-3.4344 2.1119 12.4082
3.5281 2.4483 12.1709
-3.3617 2.0822 12.4372
-3.3583 2.0823 12.4400
-1.4643 2.1828 12.3756
-6.1204 1.9354 12.5547
-3.3258 2.0904 12.4741
-1.4401 2.2004 12.4101
6.7009 2.6152 12.1330
3.5612 2.4480 12.2748
6.7128 2.6152 12.1677
2.1547 2.3011 12.4156
6.7277 2.6146 12.2372
-3.1809 2.0884 12.6078
2.1576 2.2989 12.4182
-3.1814 2.1209 12.6447
3.5944 2.4471 12.4137
-3.1447 2.1123 12.6783
6.7408 2.6139 12.3100
2.3223 2.3521 12.5359
2.3273 2.3329 12.5339
-5.8674 1.9762 12.8411
-1.3264 2.2176 12.6867
6.7896 2.6138 12.4452
-3.0350 2.0927 12.7798
-3.0356 2.1255 12.8148
2.3716 2.3730 12.6048
-1.2716 2.1842 12.8243
-5.7898 1.9689 13.0484
-2.8904 2.0977 12.9158
-1.2476 2.1842 12.8883
-2.8177 2.1150 13.0172
3.5045 2.4549 12.8023
3.5053 2.4351 12.7939
-5.7474 1.9428 13.1866
-2.7144 2.1037 13.0834
-1.1796 2.1851 13.0312
3.4039 2.4282 12.8754
2.9500 2.4036 12.9174
-5.7115 1.9435 13.2480
-2.6099 2.1078 13.1499
3.1960 2.4179 12.9525
3.3000 2.4218 12.9232
-2.6013 2.1326 13.2201
-2.5651 2.1324 13.2539
-2.5287 2.1289 13.2875
6.8686 2.6079 12.9654
-2.1772 2.1281 13.3103
-2.1176 2.1251 13.2979
-2.0710 2.1386 13.3285
-2.0593 2.1249 13.3102
-5.5642 1.9471 13.4594
-2.4561 2.1261 13.3550
-2.1776 2.1593 13.3459
-2.0639 2.1528 13.3564
6.8818 2.6072 13.0373
-5.5284 1.9557 13.4944
-2.4558 2.1434 13.3903
-1.0372 2.1865 13.3415
6.8916 2.6064 13.1070
-1.0106 2.1866 13.4107
-5.4551 1.9611 13.5970
-5.3840 1.9858 13.6650
6.8972 2.6040 13.2468
-1.9444 2.1488 13.5952
-0.9461 2.2130 13.5490
-5.3800 1.9516 13.7286
-5.3499 1.9524 13.7683
-1.8233 2.1443 13.6660
-1.8151 2.1331 13.6656
-0.9518 2.1850 13.6538
-1.7452 2.1405 13.7389
6.8846 2.6003 13.4224
-5.2703 1.9547 13.8662
6.8847 2.5999 13.4250
-5.2338 1.9557 13.9097
6.8807 2.5971 13.5625
-5.1604 1.9577 14.0070
6.8546 2.6160 13.5988
6.8560 2.6124 13.6337
-0.8617 2.2108 13.9663
-1.6547 2.1413 14.0347
-1.6449 2.1604 14.0519
-1.6389 2.1606 14.0875
-0.8557 2.1880 14.1058
-4.9765 1.9707 14.2810
-4.9414 1.9937 14.3152
-1.6423 2.1414 14.2115
6.8313 2.5979 13.9145
-4.9042 1.9972 14.3840
6.7983 2.6033 13.9858
-1.6322 2.1367 14.3072
-4.8878 1.9634 14.4529
-1.5617 2.1672 14.3404
-1.5808 2.1457 14.3756
-1.5569 2.1515 14.4018
-1.5286 2.1708 14.4055
-4.8242 1.9647 14.5558
-4.7998 1.9653 14.5899
6.8062 2.6130 14.2309
-0.6025 2.1866 14.5173
-0.5614 2.2136 14.5513
6.7740 2.6038 14.3019
-5.8352 1.9425 14.7658
-4.7160 1.9673 14.7165
6.7879 2.5773 14.3360
-5.7977 1.9176 14.7991
-4.6898 1.9678 14.7613
-6.1503 1.8897 14.8460
-5.3953 1.9912 14.8633
-1.5434 2.1333 14.7243
-5.3791 1.9635 14.8776
-5.3782 1.9583 14.8794
-5.3779 1.9624 14.8776
-4.6399 1.9684 14.8646
6.6441 2.5669 14.4810
-6.2126 1.8849 14.9213
-5.6884 1.9121 14.9353
-0.5175 2.2036 14.7948
-6.2208 1.8826 15.0234
-5.6494 1.9107 14.9826
-5.6144 1.9279 15.0007
-4.5791 1.9727 14.9554
-1.5624 2.1296 14.8650
-0.5159 2.1952 14.8296
-6.2137 1.8823 15.0582
-6.1741 1.9062 15.0572
-5.5198 1.9153 15.0680
-5.4718 1.9364 15.0628
-4.5696 1.9918 15.0240
-6.2041 1.8807 15.1629
-5.3895 1.9378 15.1117
6.5446 2.5749 14.7298
-0.4041 2.2029 15.0360
-0.3695 2.2123 15.0350
-0.3345 2.2125 15.0338
-6.1324 1.9165 15.2661
-1.5552 2.1338 15.1100
-0.3325 2.1960 15.0684
-0.3023 2.1917 15.0673
-6.1647 1.8854 15.3017
-5.1229 1.9362 15.2499
6.4100 2.5612 14.8743
-4.7418 1.9592 15.2755
-4.7146 1.9464 15.2519
-4.7859 1.9637 15.3005
-4.8846 1.9223 15.3227
6.4135 2.5453 14.9790
-6.0543 1.8826 15.4730
6.4427 2.5455 15.0481
6.4522 2.5453 15.0827
-5.9927 1.8838 15.5759
-1.5307 2.1205 15.4242
-0.0770 2.2036 15.3749
-0.0832 2.1973 15.3750
6.3849 2.5534 15.1553
-0.0364 2.1978 15.4784
-6.0816 1.8751 15.7890
-6.0436 1.8990 15.7881
0.0115 2.1983 15.5819
-6.0766 1.8819 15.8240
-6.0428 1.9068 15.8232
0.0362 2.2084 15.6162
-6.0752 1.8788 15.8589
-6.0417 1.9070 15.8582
0.0556 2.1993 15.6504
-1.5274 2.1146 15.7392
-1.5360 2.1135 15.7745
6.0821 2.5412 15.5159
-5.9655 1.8802 15.9952
0.1598 2.2021 15.7869
-5.9652 1.8772 15.9971
6.0159 2.5120 15.6228
-1.5649 2.1093 15.9156
0.2191 2.2043 15.8328
-1.5613 2.1265 15.9508
0.2548 2.2058 15.8544
0.4648 2.2312 15.8818
-5.7363 1.8950 16.1147
5.6702 2.5178 15.7401
-5.6606 1.8946 16.1460
-5.6390 1.9034 16.1536
-1.5847 2.1055 16.0563
5.6824 2.4910 15.8092
-1.5895 2.1046 16.0915
5.6860 2.4905 15.8441
-1.5924 2.1037 16.1266
-5.2438 1.9121 16.2835
-5.2002 1.9186 16.3045
1.0322 2.2575 16.1077
-1.5858 2.1070 16.2315
0.9641 2.2375 16.1363
1.0335 2.2414 16.1186
5.7573 2.4916 15.9817
-5.1176 1.9139 16.3674
-1.5848 2.1107 16.2666
1.0912 2.2434 16.1754
5.7399 2.4900 16.0174
-5.7369 1.8755 16.4454
-5.7372 1.9048 16.4492
-5.5997 1.9028 16.4547
0.7372 2.2239 16.2225
1.1257 2.2445 16.2093
-6.1929 1.8558 16.4870
-6.1589 1.8794 16.4923
-6.1172 1.8537 16.4745
-5.5209 1.8826 16.4808
0.8320 2.2283 16.2543
0.8628 2.2302 16.2401
0.8972 2.2323 16.2217
1.1421 2.2451 16.2257
-6.2773 1.8505 16.5310
-6.2617 1.8515 16.5209
5.3698 2.4836 16.1352
5.4053 2.4740 16.1338
5.4403 2.4721 16.1270
-5.3734 1.8962 16.5117
-5.2883 1.8972 16.5172
-5.2159 1.9115 16.5187
1.2153 2.2473 16.3112
5.2656 2.4886 16.1740
5.3012 2.4792 16.1726
5.3401 2.4660 16.1710
5.3712 2.4680 16.1517
-6.3296 1.8624 16.6031
-6.3297 1.8469 16.5750
1.2531 2.2486 16.3450
5.2319 2.4866 16.2102
1.2874 2.2497 16.3787
5.2699 2.4610 16.2434
1.3233 2.2549 16.4127
1.3223 2.2509 16.4127
5.2570 2.4596 16.2789
-6.5707 1.8519 16.7164
5.2003 2.4901 16.3164
-6.6391 1.8277 16.7298
1.6386 2.2996 16.4725
1.7097 2.2704 16.4544
-6.7082 1.8477 16.7912
-1.7148 2.0878 16.6210
1.4733 2.2569 16.5126
1.8129 2.2749 16.5010
5.1337 2.4690 16.3884
5.1641 2.4527 16.3871
4.7150 2.4598 16.4379
4.7862 2.4377 16.4350
4.8214 2.4338 16.4328
4.9609 2.4414 16.4209
5.0656 2.4470 16.4146
5.1350 2.4509 16.3986
-6.7412 1.8543 16.8625
1.9568 2.2805 16.6012
-1.6744 2.0872 16.7596
2.4147 2.3088 16.6207
2.4148 2.3042 16.6160
2.3852 2.3026 16.6216
4.6143 2.4455 16.5463
-6.7713 1.8166 16.9484
-6.6672 1.8477 16.9649
-1.6717 2.0872 16.7687
-1.6655 2.0870 16.7944
-1.6697 2.0895 16.8296
2.1133 2.2868 16.7009
2.5561 2.3108 16.6570
3.0804 2.3495 16.6682
3.1144 2.3700 16.6674
3.1504 2.3421 16.6501
3.1855 2.3438 16.6547
4.5675 2.4170 16.6175
2.6271 2.3140 16.6877
3.0473 2.3370 16.7042
3.0462 2.3356 16.7042
3.8153 2.3767 16.6623
2.6983 2.3170 16.7229
2.7337 2.3186 16.7373
3.0134 2.3600 16.7758
-6.3466 1.8360 17.0942
3.7143 2.3692 16.7744
3.7486 2.3714 16.7558
-1.7344 2.1001 17.0072
-1.8115 2.0732 17.1145
-1.7986 2.1013 17.1845
-1.8305 2.0709 17.1851
-1.8383 2.0698 17.2204
-6.1592 1.8386 17.4724
-6.1214 1.8394 17.5326
-1.8380 2.0664 17.3955
-1.7915 2.1036 17.3945
-6.0861 1.8622 17.5753
-6.0967 1.8398 17.5753
-6.0787 1.8401 17.6097
-6.0643 1.8402 17.6442
-1.9262 2.0577 17.6086
-1.9559 2.0554 17.6433
-1.9899 2.0529 17.6808
-6.1411 1.8321 17.8569
-2.0234 2.0530 17.7170
-2.0571 2.0481 17.7475
-2.0625 2.0477 17.7533
-6.2855 1.8231 17.9319
-2.0908 2.0483 17.7893
-2.0928 2.0455 17.7893
-6.3168 1.8211 17.9467
-2.1246 2.0470 17.8255
-2.1269 2.0430 17.8255
-2.1655 2.0403 17.8618
-6.4489 1.8124 18.0425
-6.5072 1.8079 18.1145
-6.5199 1.8068 18.1407
-2.2936 2.0311 17.9879
-6.5073 1.8052 18.2545
-2.4807 2.0188 18.1176
-6.4452 1.8081 18.2750
-6.1432 1.8232 18.3122
-6.0991 1.8249 18.3457
-6.0589 1.8428 18.3446
-2.5531 2.0129 18.2251
-6.0323 1.8277 18.3784
-5.9528 1.8460 18.3760
-5.9180 1.8495 18.3748
-5.8131 1.8530 18.3712
-5.7475 1.8422 18.4038
-5.7416 1.8481 18.4037
-5.7053 1.8438 18.4321
-2.5092 2.0198 18.3353
-5.6691 1.8473 18.4712
-2.4354 2.0125 18.3824
-5.6005 1.8473 18.5388
-2.4255 2.0288 18.3887
-5.5609 1.8489 18.5632
-5.3166 1.8603 18.6342
-2.1348 2.0380 18.5072
-4.8933 1.8821 18.6502
-2.0219 2.0471 18.5695
-4.4664 1.9040 18.6754
-1.9218 2.0512 18.6231
-3.9464 1.9308 18.7277
-1.8519 2.0278 18.6850
-1.6359 2.0494 18.8242
-3.7785 1.9338 19.0021
-1.4943 2.0549 18.9244
-3.7608 1.9346 19.0365
-1.4553 2.0563 18.9596
-1.3780 2.0577 19.0956
-1.3124 2.0932 19.0939
-3.6474 1.9353 19.2771
-2.4568 1.9968 19.3226
-2.2466 2.0076 19.3337
-3.5812 1.9361 19.4156
-2.1413 2.0130 19.3433
-1.9308 2.0236 19.3615
-1.8958 2.0254 19.3620
-1.7909 2.0309 19.3634
-2.8724 1.9728 19.4394
-2.9061 1.9844 19.4979
-2.9022 1.9681 19.6026
-3.4917 1.9361 19.6576
-2.8742 1.9675 19.7067
-2.7995 1.9688 19.8442
-2.7545 1.9698 19.9127
-2.7138 1.9708 19.9736
-2.7079 1.9710 19.9811
-2.6012 1.9739 20.1176
-2.5686 1.9922 20.1518
-2.5497 1.9740 20.2559
-2.5287 1.9896 20.2904
-2.8764 1.9546 20.3720
-2.5263 1.9900 20.3604
-2.8392 1.9563 20.3876
-2.5562 1.9709 20.3962
-2.6977 1.9628 20.4347
-2.6862 1.9633 20.4356
-2.9178 2.1935 6.0517
-2.9533 2.1916 6.0541
-2.6032 2.2160 6.0762
3.2654 2.5209 5.8715
3.5097 2.5340 5.8570
3.5447 2.5358 5.8597
-3.8941 2.1405 6.1527
-3.8601 2.1621 6.1542
-3.6157 2.1558 6.1138
3.2306 2.5190 5.8780
3.6853 2.5428 5.8802
3.7202 2.5573 5.8963
-4.4520 2.1155 6.2090
-4.3120 2.1176 6.2030
-4.2780 2.1370 6.2033
6.5862 2.6957 5.8272
2.9543 2.5026 5.9767
6.6215 2.6974 5.8360
-4.7999 2.1161 6.2913
6.6930 2.7003 5.8820
-5.1099 2.0732 6.3364
4.0739 2.5610 5.9903
4.1094 2.5625 6.0064
4.1449 2.5648 6.0217
5.7015 2.6467 5.9688
6.6994 2.6996 5.9348
2.6774 2.5179 6.1072
2.6785 2.4859 6.0920
-5.2524 2.0643 6.4112
4.2515 2.5816 6.0883
4.2918 2.5705 6.0867
5.5786 2.6393 6.0158
-5.3187 2.0806 6.4489
4.3582 2.5734 6.1194
4.3582 2.5734 6.1195
6.7005 2.6976 6.0399
-5.4812 2.0508 6.4890
-1.8583 2.2434 6.3659
4.4291 2.5766 6.1480
4.4291 2.5798 6.1522
-5.5595 2.0459 6.5325
2.4039 2.5020 6.2916
2.4051 2.4681 6.2743
4.5008 2.5793 6.1983
4.5172 2.5798 6.2191
-5.5940 2.0765 6.5985
4.5589 2.5813 6.2527
-8.4894 1.8881 6.7540
-1.6430 2.2512 6.5224
2.2690 2.4589 6.3813
4.6438 2.5851 6.2871
5.1679 2.6129 6.2727
-8.5540 1.8838 6.8036
-7.5802 1.9358 6.7530
-7.5103 1.9394 6.7528
-1.6072 2.2527 6.5466
4.7500 2.5900 6.3240
-8.5574 1.8835 6.8119
-8.1380 1.9056 6.8023
-5.9718 2.0202 6.7428
2.2013 2.4541 6.4449
4.8912 2.5966 6.3625
4.9250 2.6322 6.3809
4.9959 2.6023 6.3541
6.6202 2.6880 6.3227
-1.4993 2.2567 6.6296
-8.5295 1.8831 6.9078
-6.8073 1.9743 6.8527
-6.2125 2.0053 6.8621
-6.1782 2.0075 6.8418
-1.4270 2.2592 6.6991
-6.3500 2.0026 6.9389
-6.4194 1.9929 6.9455
-1.3055 2.2629 6.8373
2.0077 2.4386 6.7246
1.9685 2.4353 6.7891
6.4794 2.6744 6.6426
-1.1737 2.2879 6.9732
-1.1596 2.2679 6.9724
1.8685 2.4325 6.9395
-8.1546 1.8945 7.3307
-8.1290 1.8955 7.3494
6.2306 2.6558 6.9312
-0.9203 2.2911 7.2096
-8.0458 1.9288 7.4872
-8.0108 1.8977 7.5555
6.1036 2.6772 7.0761
-7.9800 1.8987 7.5894
-0.7376 2.2815 7.4113
1.7058 2.4448 7.3307
6.0722 2.6753 7.1823
-7.5835 1.9181 7.6600
-7.4433 1.9253 7.6677
-0.7037 2.2826 7.4471
-7.1958 1.9369 7.7379
-7.1606 1.9385 7.7523
-7.0893 1.9415 7.7905
-7.0699 1.9422 7.8036
6.0508 2.6382 7.3575
-7.0534 1.9429 7.8168
-7.0182 1.9531 7.8370
1.6450 2.4045 7.5423
1.6450 2.4038 7.5415
6.0455 2.6377 7.3684
-0.5183 2.2884 7.6509
-6.9807 1.9509 7.9057
5.9621 2.6308 7.5006
-7.0034 1.9417 8.0114
-0.4143 2.2912 7.7874
1.6153 2.3994 7.6902
5.9124 2.6270 7.5628
-7.0229 1.9400 8.0471
5.8788 2.6244 7.6037
-7.0442 1.9390 8.0829
-7.0461 1.9381 8.0829
5.7781 2.6170 7.7169
-0.2974 2.2940 7.9585
-0.2265 2.3189 8.0615
5.5071 2.6179 8.0066
-7.3285 1.9137 8.5827
-0.0076 2.3336 8.3344
-7.3405 1.9124 8.6181
1.6424 2.3858 8.4681
5.1406 2.5690 8.4739
-7.3823 1.9027 9.0047
0.2891 2.3130 8.7790
-7.3592 1.9248 9.1094
5.0064 2.5584 8.6575
0.3524 2.3103 8.8818
0.3734 2.3107 8.9161
0.3912 2.3110 8.9505
1.7214 2.3809 8.9403
-7.4555 1.8929 9.3224
4.8973 2.5473 8.9374
-7.4537 1.9037 9.3925
-7.4519 1.9144 9.4627
-7.4799 1.8888 9.4632
-7.4508 1.9176 9.4978
-7.4839 1.8879 9.4984
1.7722 2.3789 9.1797
-7.4833 1.8903 9.5334
1.7830 2.3787 9.2183
-7.4486 1.9197 9.5678
-7.4829 1.8852 9.6384
-7.4460 1.9158 9.6377
-7.4782 1.8849 9.6733
-7.4446 1.9122 9.6726
0.6248 2.3151 9.3707
-7.4781 1.8848 9.6751
-3.9478 2.0708 9.6233
-3.9134 2.0836 9.6223
5.0293 2.5469 9.3180
5.0294 2.5469 9.3182
-4.4352 2.0600 9.7102
-3.5262 2.0918 9.6772
-4.4340 2.0434 9.7191
-7.4024 1.9117 9.8813
-4.6405 2.0352 9.8220
5.1408 2.5494 9.4893
-4.7093 2.0346 9.8594
-4.6958 2.0270 9.8588
-4.7424 2.0238 9.8954
5.2158 2.5514 9.5918
-7.3954 1.8820 10.0409
-3.0985 2.1097 9.9083
0.8749 2.3179 9.8276
-7.2827 1.8837 10.2633
2.1894 2.3853 10.1149
-2.6652 2.1249 10.2976
-2.6470 2.1255 10.3144
1.0778 2.3374 10.2782
2.2746 2.3845 10.2521
5.6082 2.5614 10.1387
-5.0717 2.0277 10.5374
-2.5549 2.1280 10.4513
-7.0595 1.9048 10.6748
1.1445 2.3353 10.4060
5.6919 2.5638 10.2409
2.3735 2.3873 10.3763
-2.4857 2.1287 10.5890
2.4098 2.3954 10.4227
-2.4430 2.1325 10.6576
-2.4440 2.1295 10.6576
-5.0624 2.0090 10.7820
-2.4084 2.1648 10.6920
-6.9467 1.9172 10.9162
5.8739 2.5690 10.4668
-2.3160 2.1330 10.8283
1.3017 2.3235 10.7753
1.3388 2.3241 10.8441
-6.8325 1.9021 11.1572
-6.8664 1.8882 11.1581
1.3402 2.3569 10.8797
-6.7622 1.9193 11.1900
6.0595 2.5731 10.7536
1.3989 2.3253 10.9471
-6.6903 1.9303 11.2578
-4.6631 2.0369 11.2239
-2.1114 2.1378 11.1336
-6.7918 1.8893 11.3036
1.4460 2.3257 11.0506
1.4556 2.3256 11.0852
-6.7643 1.8889 11.3997
-4.4826 2.0251 11.3575
1.4787 2.3255 11.1545
-4.4111 2.0124 11.3898
2.9291 2.4017 11.1402
-4.4106 2.0124 11.3901
-4.4108 2.0370 11.4252
2.9605 2.4123 11.1743
-4.3032 2.0351 11.4915
-4.2671 2.0179 11.4943
3.0345 2.4046 11.2767
3.0345 2.4046 11.2767
6.3087 2.5783 11.1653
-4.1942 2.0293 11.5926
-4.1577 2.0212 11.6229
-4.1555 2.0212 11.6262
-1.8889 2.1763 11.5497
-6.6229 1.8897 11.7451
-6.5319 1.9228 11.7775
-4.1569 2.0533 11.6968
-6.4585 1.9254 11.8801
1.6936 2.3274 11.6374
-3.9759 2.0553 11.8657
-1.7583 2.1430 11.8248
-6.3831 1.9159 12.0174
-1.7459 2.1429 11.8594
-3.7964 2.0393 11.9642
-3.7600 2.0348 11.9944
-3.7569 2.0349 11.9978
1.7973 2.3295 11.8089
-3.7600 2.0599 12.0334
-6.4127 1.8930 12.1430
-6.3779 1.9069 12.1571
-3.6936 2.0369 12.0657
-6.3929 1.8931 12.1925
-3.6646 2.0378 12.0997
-6.3735 1.8934 12.2268
-6.2690 1.9254 12.2938
6.6217 2.5841 11.8550
-3.5419 2.0417 12.2328
-3.5057 2.0429 12.2684
-6.2300 1.9173 12.3974
-3.4695 2.0451 12.3032
-3.4334 2.0454 12.3353
3.5204 2.4128 12.1705
-3.3237 2.0491 12.4383
-3.2888 2.0504 12.4689
-3.2889 2.0541 12.4722
-3.2856 2.0505 12.4720
-6.0821 1.9268 12.6375
-3.2139 2.0529 12.5396
-3.1803 2.0541 12.5714
-3.1804 2.0563 12.5735
-1.4345 2.1471 12.4910
2.1564 2.2929 12.4170
-6.0609 1.8999 12.7414
-3.1440 2.0552 12.6115
-1.3967 2.1534 12.5829
-6.0409 1.9006 12.7757
-5.9727 1.9363 12.7740
2.3181 2.3191 12.5342
-3.0349 2.0669 12.7437
2.3043 2.3198 12.5453
2.3364 2.3206 12.5476
2.3425 2.3138 12.5439
-3.0350 2.0921 12.7792
-1.3381 2.1477 12.7209
2.3168 2.3262 12.5612
3.5868 2.4089 12.5534
-2.9626 2.0697 12.8113
-1.3212 2.1479 12.7553
2.3266 2.3232 12.5718
2.3423 2.3368 12.5806
2.3648 2.3391 12.5952
6.8097 2.5792 12.4789
-1.3203 2.1479 12.7572
3.5735 2.4069 12.6239
-5.9290 1.9023 12.9762
-5.8948 1.9228 12.9812
-1.2838 2.1644 12.8244
3.5706 2.4401 12.6596
-2.8538 2.0667 12.9125
-1.2818 2.1480 12.8589
-2.8539 2.0925 12.9480
-2.8175 2.0658 12.9477
-1.2570 2.1479 12.9282
-2.6486 2.0728 13.0456
-1.2431 2.1480 12.9649
-1.2083 2.1727 12.9970
-2.5703 2.0762 13.0779
-1.2062 2.1562 13.0317
2.8159 2.3580 12.8688
3.3878 2.3923 12.8753
-5.7675 1.9060 13.2216
2.9164 2.3671 12.9021
-2.5319 2.0776 13.1145
3.0223 2.3721 12.9293
3.1263 2.4112 12.9549
-1.1338 2.1790 13.1346
-5.7072 1.9073 13.3192
-1.1318 2.1641 13.1693
-1.1490 2.1489 13.1697
-1.1299 2.1514 13.2041
6.8908 2.5747 12.9313
-5.6357 1.9292 13.3926
-2.0228 2.0865 13.2742
-1.9832 2.0677 13.2789
-1.9868 2.0724 13.2821
-2.4209 2.0996 13.3183
-2.3855 2.0934 13.3170
-2.3504 2.0834 13.3036
-2.2805 2.0871 13.3032
6.9046 2.5741 13.0009
-2.3853 2.1107 13.3523
-1.0891 2.1494 13.3077
6.9158 2.5733 13.0705
-1.9780 2.1084 13.3989
-5.4864 1.9128 13.6320
-5.4862 1.9128 13.6323
-1.0229 2.1495 13.4805
-5.4626 1.9134 13.6665
-5.4496 1.9137 13.6847
-0.9793 2.1767 13.5495
6.9278 2.5699 13.2802
-1.8075 2.1272 13.6703
-1.7565 2.1154 13.7314
6.9204 2.5673 13.3940
-1.7419 2.1145 13.7569
-1.6957 2.1126 13.8672
6.8899 2.5894 13.5621
-0.9734 2.1447 13.8640
-0.9335 2.1765 13.8631
6.9267 2.5642 13.5754
6.9293 2.5744 13.6655
-5.1179 1.9229 14.1099
-0.9641 2.1437 13.9456
6.8958 2.5891 13.7370
-5.0271 1.9250 14.2469
-0.8900 2.1739 14.1068
6.9000 2.5778 13.8417
-1.6606 2.1240 14.1590
-0.9212 2.1416 14.1700
-4.9606 1.9265 14.3497
-0.7115 2.1768 14.2057
-0.8765 2.1425 14.2459
-0.6758 2.1874 14.2396
6.8706 2.5604 13.9826
-0.7082 2.1599 14.2753
-1.6503 2.1128 14.3424
6.8374 2.5720 14.0540
6.8735 2.5521 14.0541
-0.6681 2.1543 14.4139
-4.8099 1.9298 14.5897
-1.5757 2.1157 14.4800
6.8768 2.5801 14.1929
6.9297 2.5525 14.1905
-4.7874 1.9303 14.6222
6.8780 2.5794 14.2278
6.9251 2.5515 14.2257
-1.5642 2.1006 14.5494
6.8798 2.5680 14.2626
6.9054 2.5498 14.2614
6.8772 2.5476 14.2974
-0.5935 2.1801 14.5869
-6.0057 1.8634 14.7851
-5.8657 1.8784 14.8008
-1.5569 2.0989 14.6541
6.7430 2.5719 14.3725
6.7791 2.5517 14.3709
-5.8650 1.8703 14.8097
-5.8292 1.8740 14.8345
6.7478 2.5388 14.4068
-6.2446 1.8489 14.8836
-5.3777 1.9557 14.8800
-5.3752 1.9592 14.8788
-1.5656 2.1053 14.7596
-0.5958 2.1431 14.7298
-0.5637 2.1764 14.7198
-5.7201 1.8751 14.9509
6.6450 2.5509 14.5507
-5.6840 1.8764 14.9845
-5.6492 1.8941 15.0037
-6.2865 1.8434 15.0601
-5.6485 1.8773 15.0219
-5.6110 1.8948 15.0363
-5.5496 1.9006 15.0696
-4.5731 1.9604 15.0308
6.6489 2.5433 14.6555
-5.5642 1.8751 15.0891
-1.5921 2.0910 14.9705
-0.5243 2.1476 14.9342
-0.5091 2.1478 14.9687
6.6380 2.5269 14.7257
-0.4951 2.1478 15.0032
-5.2799 1.8960 15.2163
-5.2693 1.8867 15.2277
-5.2290 1.9175 15.2177
-5.1958 1.9258 15.2252
-0.4710 2.1483 15.0463
-0.4514 2.1488 15.0718
-5.1449 1.9065 15.2591
-4.6950 1.9250 15.2328
-4.7085 1.9163 15.2481
-6.1270 1.8804 15.3704
-4.7443 1.9076 15.2825
-0.1875 2.1712 15.1680
-4.8938 1.8988 15.3257
-4.8031 1.9038 15.3207
-0.1736 2.1608 15.2024
-6.1215 1.8442 15.4746
-1.5484 2.0839 15.4592
-6.0755 1.8424 15.6832
-6.0109 1.8751 15.6815
6.1803 2.5151 15.2668
-6.1114 1.8547 15.7897
6.1145 2.5010 15.3740
-6.1102 1.8560 15.8247
0.0102 2.1625 15.6163
0.0393 2.1636 15.6367
-1.5518 2.0783 15.7394
-6.0748 1.8377 15.9282
-1.5632 2.0756 15.8449
-5.9628 1.8419 16.0131
6.1111 2.4820 15.6190
0.3968 2.1780 15.8607
5.9857 2.4745 15.6693
-1.5925 2.0768 15.9860
-1.5927 2.0717 15.9716
0.4676 2.1812 15.8859
5.8112 2.4641 15.7342
-5.6515 1.8609 16.1513
-1.6015 2.0702 16.0212
0.5283 2.1832 15.9488
-1.6062 2.0693 16.0564
0.5512 2.1837 15.9831
-5.4703 1.8696 16.2046
0.5744 2.1843 16.0173
5.7110 2.4752 15.8430
0.5772 2.1844 16.0204
5.7832 2.4592 15.9102
0.6489 2.1862 16.1198
5.7843 2.4592 15.9124
-1.6248 2.0650 16.2321
0.6507 2.1863 16.1222
0.9309 2.2088 16.1454
0.9310 2.2007 16.1353
1.0003 2.2047 16.1163
1.0357 2.2063 16.1308
5.7860 2.4714 15.9804
5.7878 2.4607 16.0152
-5.7181 1.8451 16.4457
-5.1021 1.8829 16.4236
0.8983 2.1978 16.1995
5.7557 2.4551 16.0512
5.7881 2.4574 16.0198
-6.2778 1.8161 16.4954
-6.2272 1.8462 16.4941
-6.1579 1.8235 16.4713
-5.5401 1.8693 16.4788
0.7950 2.1914 16.2467
1.1588 2.2106 16.2425
-6.2954 1.8150 16.5043
-5.2941 1.8758 16.5208
5.5118 2.4469 16.1296
-5.4178 1.8537 16.5205
-5.3496 1.8750 16.5207
-5.3168 1.8819 16.5196
5.4776 2.4388 16.1413
-6.4318 1.8069 16.6057
-6.4318 1.8060 16.6040
-5.1520 1.9012 16.5114
1.2862 2.2146 16.3783
5.3400 2.4303 16.2082
-6.5009 1.8341 16.6786
-6.7529 1.7862 16.7566
1.6552 2.2322 16.4708
5.2587 2.4233 16.3482
1.4677 2.2417 16.5125
-6.8099 1.8060 16.8290
-1.7488 2.0503 16.6565
1.5744 2.2267 16.5342
1.8538 2.2416 16.5225
5.1026 2.4138 16.4183
-1.7291 2.0500 16.7259
1.9614 2.2457 16.5996
2.3453 2.2733 16.5875
2.3800 2.2799 16.5864
2.4297 2.2706 16.5845
4.6854 2.3906 16.4889
4.6669 2.3892 16.5084
2.3118 2.2664 16.6236
2.3457 2.2874 16.6227
3.1483 2.3073 16.6301
-6.7679 1.7809 16.9929
2.1047 2.2513 16.6975
2.6287 2.2791 16.6806
3.0127 2.3049 16.6698
3.0468 2.3239 16.6689
-6.6974 1.7842 17.0106
-6.6270 1.7877 17.0216
-6.5919 1.7894 17.0266
-1.7348 2.0470 16.8661
