-28.744 -18.193 17.969
-28.504 -18.133 17.973
-28.274 -17.834 17.997
-28.044 -17.515 18.022
-27.814 -17.326 18.037
-27.584 -17.037 18.060
-27.354 -16.718 18.085
-27.134 -16.199 18.125
-26.904 -15.861 18.152
-26.664 -15.622 18.181
-26.434 -15.472 18.193
-26.204 -15.263 18.209
-25.964 -15.094 18.222
-25.724 -15.034 18.227
-25.494 -14.864 18.241
-25.254 -14.695 18.254
-25.014 -14.705 18.253
-24.784 -14.635 18.259
-24.544 -14.545 18.266
-24.304 -14.615 18.260
-24.054 -14.795 18.246
-23.814 -14.964 18.233
-23.574 -14.944 18.234
-23.334 -14.775 18.248
-23.094 -14.725 18.252
-22.854 -14.705 18.253
-22.614 -14.705 18.253
-22.374 -14.775 18.248
-22.134 -14.954 18.233
-21.884 -15.074 18.224
-21.644 -15.134 18.219
-21.404 -15.094 18.222
-21.174 -15.044 18.226
-20.934 -14.874 18.240
-20.694 -14.745 18.250
-20.464 -14.535 18.266
-20.224 -14.446 18.273
-19.994 -14.117 18.299
-19.754 -13.857 18.320
-19.524 -13.618 18.339
-19.284 -13.389 18.357
-19.054 -13.180 18.373
-18.814 -13.090 18.380
-18.574 -12.950 18.391
-18.334 -13.170 18.374
-18.094 -13.130 18.377
-17.854 -13.090 18.380
-17.614 -13.020 18.386
-17.374 -12.970 18.390
-17.134 -12.781 18.405
-16.694 -10.747 18.815
-16.454 -10.388 18.844
-16.454 -10.648 18.582
-16.684 -11.027 18.553
-16.224 -9.939 18.879
-16.224 -10.200 18.618
-15.984 -9.821 18.648
-15.754 -9.581 18.666
-15.514 -9.233 18.694
-15.284 -8.794 18.728
-15.044 -8.644 18.740
-14.804 -8.624 18.742
-14.554 -8.724 18.734
-14.314 -8.904 18.720
-14.074 -8.714 18.735
-13.834 -8.545 18.748
-12.894 -6.770 18.888
-13.124 -7.229 18.852
-12.654 -6.730 18.891
-12.404 -6.700 18.893
-12.164 -6.501 18.909
-11.924 -6.611 18.900
-11.684 -6.700 18.893
-11.434 -6.810 18.884
-11.194 -6.870 18.880
-10.954 -6.820 18.884
-10.714 -6.541 18.906
-10.474 -6.103 18.950
-10.234 -6.033 18.956
-9.764 -4.468 19.079
-10.004 -4.827 19.051
-9.524 -4.099 19.108
-9.284 -3.960 19.119
-8.834 -0.382 19.410
-9.074 -0.461 19.404
-8.594 -0.192 19.425
-8.344 -0.053 19.436
-8.104 0.127 19.450
-7.864 0.306 19.465
-7.614 0.506 19.480
-7.374 0.506 19.480
-7.134 1.074 19.776
-7.134 0.715 19.497
-6.894 1.393 19.801
-6.884 0.934 19.514
-46.754 -7.578 18.824
-46.494 -7.918 18.557
-46.754 -7.619 18.580
-46.254 -8.027 18.548
-46.004 -8.007 18.549
-45.764 -8.107 18.542
-45.504 -8.317 18.525
-45.254 -8.466 18.513
-45.014 -8.496 18.511
-44.764 -8.596 18.503
-44.524 -8.626 18.501
-44.284 -8.556 18.506
-44.044 -8.626 18.501
-43.784 -8.845 18.484
-43.544 -8.994 18.472
-43.294 -9.104 18.463
-43.044 -9.284 18.449
-42.784 -9.533 18.429
-42.524 -9.932 18.398
-42.274 -10.151 18.381
-42.024 -10.430 18.359
-41.744 -11.246 18.525
-41.744 -11.047 18.300
-40.834 -15.025 17.987
-41.104 -14.377 18.038
-37.814 -23.616 17.532
-37.554 -24.095 17.253
-37.794 -23.956 17.264
-37.314 -24.155 17.249
-37.074 -24.205 17.245
-36.834 -24.235 17.242
-36.594 -24.285 17.238
-36.364 -24.285 17.238
-36.124 -24.295 17.238
-35.894 -24.195 17.245
-35.654 -24.265 17.240
-35.414 -24.175 17.247
-35.184 -24.105 17.252
-34.954 -23.956 17.264
-34.714 -23.846 17.273
-34.484 -23.647 17.289
-34.254 -23.487 17.301
-34.034 -23.228 17.322
-33.804 -22.899 17.347
-33.584 -22.440 17.383
-33.364 -22.141 17.407
-33.144 -21.683 17.443
-32.914 -21.344 17.470
-32.684 -21.085 17.500
-32.464 -20.727 17.528
-32.244 -20.338 17.559
-32.014 -19.949 17.590
-31.794 -19.451 17.629
-31.564 -19.191 17.649
-31.344 -18.902 17.672
-31.104 -18.783 17.681
-30.874 -18.673 17.690
-30.634 -18.543 17.700
-30.404 -18.424 17.710
-30.164 -18.394 17.712
-29.924 -18.424 17.710
-29.684 -18.394 17.712
-29.454 -18.354 17.715
-29.214 -18.344 17.716
-28.974 -18.274 17.721
-28.744 -18.135 17.732
-28.504 -17.945 17.747
-28.274 -17.776 17.761
-28.054 -17.317 17.797
-27.814 -17.148 17.810
-27.584 -16.918 17.828
-27.354 -16.549 17.857
-27.134 -16.071 17.895
-26.904 -15.753 17.930
-26.674 -15.484 17.951
-26.434 -15.324 17.964
-26.194 -15.284 17.967
-25.964 -15.105 17.981
-25.724 -14.985 17.990
-25.494 -14.895 17.997
-25.254 -14.826 18.003
-25.014 -14.726 18.011
-24.774 -14.656 18.016
-24.544 -14.527 18.026
-24.304 -14.447 18.033
-24.064 -14.517 18.027
-23.814 -14.666 18.015
-23.574 -14.806 18.004
-23.334 -14.656 18.016
-23.094 -14.766 18.008
-22.854 -14.816 18.004
-22.614 -14.686 18.014
-22.374 -14.816 18.004
-22.134 -14.975 17.991
-21.884 -15.065 17.984
-21.644 -15.135 17.979
-21.404 -15.135 17.979
-21.164 -15.145 17.978
-20.924 -15.085 17.982
-20.694 -14.955 17.993
-20.454 -14.716 18.011
-20.224 -14.586 18.022
-19.994 -14.198 18.052
-19.754 -13.898 18.076
-19.524 -13.669 18.094
-19.284 -13.550 18.103
-19.054 -13.270 18.125
-18.814 -13.071 18.141
-18.574 -12.892 18.155
-18.334 -12.931 18.152
-18.094 -13.121 18.137
-17.854 -13.151 18.135
-17.604 -13.191 18.132
-17.374 -13.001 18.146
-17.134 -12.822 18.161
-16.904 -12.312 18.441
-16.904 -12.553 18.182
-16.454 -10.738 18.325
-16.684 -11.087 18.297
-16.214 -10.539 18.340
-15.984 -10.161 18.380
-15.744 -9.812 18.407
-15.514 -9.463 18.435
-15.274 -9.134 18.461
-15.034 -8.735 18.492
-14.804 -8.596 18.503
-14.554 -8.785 18.488
-14.314 -8.805 18.487
-14.074 -8.785 18.488
-13.834 -8.705 18.495
-13.594 -8.555 18.747
-13.594 -8.705 18.495
-12.644 -6.851 18.640
-12.884 -7.080 18.622
-12.404 -6.702 18.652
-12.164 -6.662 18.655
-11.924 -6.612 18.659
-11.684 -6.801 18.644
-11.434 -6.841 18.641
-11.194 -6.871 18.639
-10.954 -6.821 18.643
-10.714 -6.682 18.654
-10.474 -6.193 18.692
-10.234 -6.054 18.703
-9.764 -4.519 18.834
-10.004 -4.908 18.803
-9.524 -4.389 18.844
-9.284 -3.801 18.891
-8.834 -0.432 19.156
-9.074 -0.611 19.142
-8.594 -0.192 19.175
-8.344 -0.043 19.186
-8.104 0.116 19.209
-7.864 0.325 19.225
-7.614 0.465 19.236
-7.374 0.525 19.241
-7.134 0.644 19.250
-6.884 0.734 19.258
-6.644 1.134 19.530
-6.644 0.953 19.275
-6.404 1.483 19.557
-6.404 1.083 19.285
-6.164 1.722 19.576
-6.154 1.272 19.300
-5.424 2.161 19.611
-5.184 2.210 19.614
-5.184 1.811 19.342
-5.424 1.930 19.352
-46.504 -7.859 18.320
-46.754 -7.620 18.339
-46.254 -7.909 18.316
-46.014 -7.809 18.324
-45.764 -8.019 18.308
-45.504 -8.288 18.287
-45.264 -8.427 18.276
-45.014 -8.447 18.274
-44.774 -8.567 18.265
-44.534 -8.517 18.269
-44.294 -8.477 18.272
-44.044 -8.567 18.265
-43.794 -8.796 18.247
-43.534 -9.035 18.228
-43.284 -9.175 18.217
-43.044 -9.325 18.205
-42.784 -9.673 18.178
-42.524 -10.002 18.142
-42.264 -10.291 18.119
-42.014 -10.600 18.095
-41.734 -11.268 18.042
-38.294 -23.547 17.296
-38.034 -23.866 17.271
-38.024 -24.087 17.013
-38.264 -24.047 17.016
-37.784 -24.226 17.002
-37.544 -24.276 16.998
-37.294 -24.525 16.979
-37.064 -24.465 16.983
-36.824 -24.575 16.975
-36.584 -24.615 16.972
-36.354 -24.495 16.981
-36.114 -24.485 16.982
-35.874 -24.485 16.982
-35.644 -24.406 16.988
-35.404 -24.415 16.987
-35.164 -24.425 16.987
-34.934 -24.306 16.996
-34.704 -24.116 17.011
-34.474 -24.087 17.013
-34.244 -23.787 17.037
-34.014 -23.688 17.045
-33.794 -23.299 17.075
-33.574 -22.791 17.115
-33.354 -22.402 17.146
-33.134 -21.844 17.200
-32.904 -21.665 17.214
-32.684 -21.306 17.242
-32.454 -20.937 17.271
-32.234 -20.518 17.304
-32.014 -20.130 17.335
-31.784 -19.791 17.361
-31.564 -19.412 17.391
-31.334 -19.023 17.422
-31.104 -18.863 17.434
-30.874 -18.594 17.455
-30.634 -18.564 17.458
-30.394 -18.505 17.463
-30.164 -18.465 17.466
-29.924 -18.365 17.474
-29.684 -18.385 17.472
-29.444 -18.405 17.470
-29.214 -18.365 17.474
-28.974 -18.245 17.483
-28.744 -18.096 17.495
-28.514 -17.847 17.514
-28.284 -17.567 17.536
-28.054 -17.288 17.558
-27.824 -16.979 17.583
-27.594 -16.660 17.608
-27.364 -16.361 17.631
-27.134 -15.933 17.675
-26.904 -15.724 17.691
-26.664 -15.574 17.703
-26.434 -15.365 17.720
-26.204 -15.235 17.730
-25.964 -15.206 17.732
-25.724 -14.996 17.749
-25.494 -14.867 17.759
-25.254 -14.757 17.768
-25.014 -14.737 17.769
-24.774 -14.737 17.769
-24.534 -14.737 17.769
-24.304 -14.587 17.781
-24.064 -14.528 17.786
-23.824 -14.468 17.790
-23.574 -14.647 17.776
-23.334 -14.747 17.768
-23.094 -14.707 17.771
-22.854 -14.817 17.763
-22.614 -14.877 17.758
-22.374 -14.787 17.765
-22.134 -14.916 17.755
-21.884 -15.166 17.735
-21.644 -15.176 17.735
-21.404 -15.206 17.732
-21.164 -15.166 17.735
-20.924 -15.186 17.734
-20.684 -15.126 17.738
-20.454 -14.867 17.759
-20.214 -14.687 17.773
-19.994 -14.069 17.822
-19.764 -13.720 17.849
-19.514 -13.740 17.848
-19.284 -13.650 17.855
-19.044 -13.401 17.874
-18.814 -13.132 17.895
-18.574 -12.982 17.907
-18.334 -12.833 17.919
-18.094 -13.142 17.895
-17.854 -13.152 17.894
-17.604 -13.242 17.887
-17.374 -13.092 17.899
-17.134 -12.943 17.910
-16.894 -12.763 17.924
-16.454 -10.829 18.077
-16.684 -11.178 18.049
-16.214 -10.460 18.106
-15.974 -10.261 18.121
-15.744 -9.902 18.150
-15.504 -9.534 18.189
-15.274 -9.334 18.204
-15.034 -8.976 18.233
-14.794 -8.706 18.254
-14.554 -8.726 18.252
-14.314 -8.806 18.246
-14.074 -8.816 18.245
-13.824 -8.866 18.241
-13.584 -8.856 18.242
-12.644 -6.902 18.396
-12.884 -7.301 18.364
-12.404 -6.902 18.396
-12.164 -6.762 18.407
-11.924 -6.742 18.408
-11.674 -6.902 18.396
-11.434 -6.942 18.393
-11.194 -6.932 18.393
-10.954 -6.962 18.391
-10.714 -6.742 18.408
-10.474 -6.473 18.429
-10.234 -6.274 18.445
-9.764 -4.808 18.561
-10.004 -5.177 18.531
-9.524 -4.450 18.589
-8.584 -0.323 18.924
-8.834 -0.612 18.901
-8.344 -0.054 18.945
-8.104 0.096 18.956
-7.864 0.305 18.973
-7.614 0.385 18.979
-7.374 0.454 18.985
-7.134 0.654 19.000
-6.884 0.754 19.008
-6.644 0.883 19.018
-6.394 0.943 19.023
-6.154 1.063 19.033
-5.914 1.392 19.309
-5.914 1.142 19.039
-5.674 1.711 19.334
-5.664 1.232 19.046
-5.424 1.342 19.055
-5.184 1.611 19.076
-4.934 1.850 19.345
-4.934 1.601 19.075
-4.694 2.070 19.363
-4.694 1.601 19.075
-4.444 2.140 19.368
-4.444 1.641 19.078
-46.504 -7.790 18.085
-46.744 -7.711 18.091
-46.264 -7.721 18.091
-46.024 -7.721 18.091
-45.764 -7.950 18.073
-45.514 -8.209 18.052
-45.264 -8.269 18.047
-45.024 -8.249 18.049
-44.774 -8.428 18.035
-44.534 -8.438 18.034
-44.294 -8.468 18.032
-44.034 -8.697 18.004
-43.784 -8.926 17.986
-43.534 -9.106 17.972
-43.284 -9.295 17.957
-43.034 -9.405 17.948
-42.774 -9.724 17.923
-42.514 -10.102 17.893
-42.264 -10.382 17.871
-42.004 -10.691 17.847
-38.514 -23.907 17.027
-38.264 -24.118 16.770
-38.514 -23.859 16.800
-38.024 -24.227 16.761
-37.774 -24.377 16.750
-37.534 -24.516 16.739
-37.294 -24.596 16.732
-37.054 -24.746 16.721
-36.814 -24.766 16.719
-36.574 -24.726 16.722
-36.334 -24.756 16.720
-36.104 -24.736 16.721
-35.864 -24.646 16.728
-35.634 -24.586 16.733
-35.394 -24.546 16.736
-35.164 -24.526 16.738
-34.924 -24.486 16.741
-34.694 -24.377 16.750
-34.464 -24.327 16.754
-34.234 -24.068 16.774
-34.004 -23.879 16.799
-33.784 -23.550 16.825
-33.554 -23.121 16.858
-33.344 -22.623 16.898
-33.124 -22.164 16.934
-32.894 -21.855 16.958
-32.674 -21.417 16.993
-32.444 -21.118 17.016
-32.224 -20.629 17.055
-32.004 -20.270 17.083
-31.774 -19.931 17.110
-31.554 -19.542 17.140
-31.324 -19.194 17.168
-31.104 -18.904 17.190
-30.874 -18.675 17.208
-30.634 -18.595 17.215
-30.394 -18.486 17.223
-30.164 -18.426 17.228
-29.924 -18.396 17.230
-29.684 -18.386 17.231
-29.444 -18.336 17.235
-29.214 -18.197 17.246
-28.984 -18.087 17.255
-28.744 -17.927 17.267
-28.514 -17.648 17.289
-28.284 -17.469 17.303
-28.054 -17.110 17.332
-27.824 -16.851 17.352
-27.594 -16.542 17.376
-27.364 -16.194 17.414
-27.134 -15.964 17.432
-26.904 -15.665 17.455
-26.674 -15.416 17.475
-26.434 -15.306 17.484
-26.194 -15.227 17.490
-25.964 -15.157 17.495
-25.724 -15.077 17.502
-25.484 -14.957 17.511
-25.254 -14.788 17.524
-25.014 -14.698 17.531
-24.774 -14.609 17.538
-24.534 -14.618 17.538
-24.304 -14.569 17.542
-24.064 -14.419 17.553
-23.824 -14.439 17.552
-23.584 -14.509 17.546
-23.334 -14.718 17.530
-23.094 -14.668 17.534
-22.854 -14.738 17.528
-22.614 -14.738 17.528
-22.374 -14.888 17.516
-22.134 -14.908 17.515
-21.884 -15.137 17.497
-21.644 -15.157 17.495
-21.404 -15.167 17.495
-21.164 -15.217 17.491
-20.924 -15.127 17.498
-20.684 -15.087 17.501
-20.454 -14.928 17.513
-20.214 -14.758 17.527
-19.994 -14.000 17.586
-19.754 -13.761 17.605
-19.524 -13.691 17.611
-19.284 -13.612 17.617
-19.044 -13.472 17.628
-18.804 -13.352 17.637
-18.574 -13.083 17.658
-18.334 -12.784 17.682
-18.094 -12.814 17.680
-17.854 -13.023 17.663
-17.614 -13.003 17.665
-17.374 -12.984 17.666
-17.134 -12.884 17.674
-16.894 -12.744 17.685
-16.444 -11.119 17.813
-16.674 -11.897 17.752
-16.214 -10.531 17.859
-15.974 -10.312 17.877
-15.744 -9.963 17.904
-15.504 -9.634 17.930
-15.274 -9.275 17.958
-15.034 -9.155 17.968
-14.794 -8.886 17.989
-14.554 -8.747 18.000
-14.314 -8.856 17.991
-14.064 -9.026 17.978
-13.824 -8.976 17.982
-13.584 -8.826 17.994
-13.354 -8.228 18.291
-13.354 -8.488 18.030
-13.114 -7.909 18.316
-13.114 -8.040 18.065
-12.874 -7.760 18.087
-12.644 -7.162 18.135
-12.404 -6.933 18.153
-12.164 -6.863 18.158
-11.924 -6.853 18.159
-11.674 -6.943 18.152
-11.434 -6.953 18.151
-11.194 -6.913 18.154
-10.954 -7.003 18.147
-10.714 -6.873 18.157
-10.474 -6.445 18.191
-10.234 -6.195 18.211
-9.764 -4.869 18.315
-10.004 -5.298 18.281
-9.524 -4.261 18.363
-8.584 -0.434 18.674
-8.824 -0.833 18.643
-8.344 -0.135 18.698
-8.104 0.144 18.720
-7.864 0.284 18.731
-7.614 0.433 18.742
-7.374 0.523 18.749
-7.134 0.713 18.764
-6.884 0.792 18.771
-6.644 0.942 18.782
-6.404 1.032 18.789
-6.154 1.071 18.793
-5.914 1.101 18.795
-5.664 1.161 18.800
-5.424 1.171 18.800
-5.174 1.261 18.807
-4.934 1.371 18.816
-4.694 1.490 18.826
-4.444 1.610 18.835
-4.204 1.940 19.102
-4.204 1.660 18.839
-3.954 2.069 19.112
-3.954 1.799 18.850
-3.714 2.279 19.128
-3.714 1.869 18.855
-46.504 -7.651 17.845
-46.754 -7.502 17.857
-46.264 -7.661 17.844
-46.024 -7.731 17.839
-45.764 -7.960 17.821
-45.514 -8.080 17.812
-45.274 -8.050 17.814
-45.034 -8.160 17.805
-44.774 -8.419 17.785
-44.534 -8.459 17.782
-44.284 -8.548 17.775
-44.034 -8.768 17.757
-43.774 -9.037 17.736
-43.524 -9.186 17.724
-43.284 -9.216 17.722
-43.024 -9.575 17.694
-42.774 -9.854 17.672
-42.514 -10.193 17.645
-42.254 -10.472 17.623
-42.004 -10.771 17.600
-38.764 -23.550 16.825
-38.504 -23.960 16.552
-38.744 -23.900 16.556
-38.244 -24.438 16.514
-38.014 -24.359 16.520
-37.764 -24.598 16.501
-37.524 -24.708 16.493
-37.284 -24.767 16.488
-37.044 -24.867 16.480
-36.804 -24.937 16.475
-36.564 -24.917 16.476
-36.334 -24.837 16.483
-36.084 -25.017 16.469
-35.854 -24.877 16.480
-35.624 -24.837 16.483
-35.384 -24.797 16.486
-35.154 -24.777 16.487
-34.924 -24.658 16.497
-34.674 -24.757 16.489
-34.454 -24.498 16.509
-34.224 -24.369 16.520
-33.994 -24.139 16.538
-33.774 -23.770 16.567
-33.544 -23.442 16.593
-33.324 -22.943 16.632
-33.114 -22.255 16.686
-32.884 -22.076 16.700
-32.664 -21.667 16.732
-32.444 -21.308 16.760
-32.214 -20.879 16.794
-31.994 -20.471 16.826
-31.774 -20.042 16.860
-31.544 -19.743 16.884
-31.324 -19.215 16.925
-31.094 -19.035 16.939
-30.864 -18.766 16.960
-30.634 -18.606 16.973
-30.394 -18.606 16.973
-30.154 -18.537 16.979
-29.924 -18.407 16.989
-29.684 -18.377 16.991
-29.454 -18.277 16.999
-29.214 -18.088 17.014
-28.984 -17.919 17.027
-28.754 -17.679 17.046
-28.524 -17.400 17.068
-28.284 -17.310 17.075
-28.064 -16.962 17.102
-27.824 -16.733 17.131
-27.594 -16.414 17.156
-27.374 -16.085 17.182
-27.144 -15.816 17.203
-26.904 -15.567 17.222
-26.674 -15.297 17.243
-26.434 -15.288 17.244
-26.204 -15.198 17.251
-25.964 -15.068 17.262
-25.724 -15.058 17.262
-25.484 -14.939 17.272
-25.254 -14.829 17.280
-25.014 -14.809 17.282
-24.774 -14.689 17.291
-24.534 -14.640 17.295
-24.294 -14.590 17.299
-24.064 -14.520 17.305
-23.824 -14.420 17.313
-23.584 -14.500 17.306
-23.334 -14.590 17.299
-23.094 -14.669 17.293
-22.854 -14.749 17.287
-22.614 -14.739 17.287
-22.374 -14.809 17.282
-22.134 -14.919 17.273
-21.884 -15.068 17.262
-21.644 -15.158 17.254
-21.404 -15.238 17.248
-21.164 -15.297 17.243
-20.924 -15.327 17.241
-20.684 -15.138 17.256
-20.444 -15.048 17.263
-20.214 -14.879 17.276
-19.994 -14.131 17.335
-19.754 -13.842 17.358
-19.514 -13.732 17.367
-19.284 -13.593 17.378
-19.044 -13.583 17.378
-18.804 -13.533 17.382
-18.564 -13.234 17.406
-18.334 -12.945 17.429
-18.094 -12.705 17.447
-17.854 -12.895 17.433
-17.614 -12.895 17.433
-17.374 -12.935 17.429
-17.134 -12.945 17.429
-16.894 -12.686 17.449
-16.664 -12.307 17.479
-15.974 -10.492 17.622
-16.214 -10.762 17.600
-15.734 -10.223 17.643
-15.504 -9.785 17.677
-15.264 -9.495 17.700
-15.024 -9.575 17.694
-14.794 -9.067 17.734
-14.554 -8.818 17.753
-14.314 -8.887 17.748
-14.064 -9.057 17.735
-13.824 -9.087 17.732
-13.584 -8.927 17.745
-13.344 -8.748 17.759
-13.114 -8.419 17.785
-12.874 -7.990 17.819
-12.634 -7.691 17.842
-12.404 -7.063 17.892
-12.164 -7.063 17.892
-11.914 -7.004 17.906
-11.674 -7.014 17.905
-11.434 -6.984 17.908
-11.194 -7.004 17.906
-10.954 -7.024 17.905
-10.714 -6.904 17.914
-10.474 -6.655 17.934
-10.234 -6.286 17.963
-9.764 -4.532 18.101
-10.004 -5.309 18.040
-9.534 -3.764 18.161
-8.584 -0.673 18.404
-8.824 -0.993 18.379
-8.344 -0.345 18.430
-8.104 -0.025 18.455
-7.864 0.194 18.473
-7.614 0.294 18.481
-7.374 0.513 18.498
-7.134 0.642 18.508
-6.884 0.722 18.514
-6.644 0.832 18.523
-6.394 0.922 18.530
-6.154 0.971 18.534
-5.914 1.061 18.541
-5.664 1.061 18.541
-5.424 1.051 18.540
-5.174 1.111 18.545
-4.934 1.171 18.550
-4.684 1.211 18.553
-4.444 1.330 18.562
-4.204 1.400 18.568
-3.954 1.490 18.575
-3.714 1.570 18.581
-3.464 2.019 18.867
-3.464 1.779 18.597
-46.514 -7.523 17.615
-46.764 -7.393 17.625
-46.274 -7.553 17.612
-46.024 -7.732 17.598
-45.764 -7.941 17.582
-45.524 -7.991 17.578
-45.284 -8.001 17.577
-45.024 -8.201 17.561
-44.774 -8.380 17.547
-44.534 -8.470 17.540
-44.274 -8.669 17.524
-44.024 -8.829 17.512
-43.774 -9.028 17.496
-43.524 -9.307 17.474
-43.274 -9.377 17.469
-43.024 -9.596 17.451
-42.764 -9.875 17.429
-42.514 -10.174 17.406
-42.244 -10.633 17.370
-41.994 -10.922 17.347
-39.244 -23.491 16.589
-38.994 -23.731 16.570
-38.974 -24.041 16.305
-39.224 -23.752 16.327
-38.734 -24.240 16.289
-38.494 -24.270 16.287
-38.244 -24.579 16.262
-38.004 -24.629 16.258
-37.754 -24.759 16.248
-37.514 -24.818 16.243
-37.274 -24.888 16.238
-37.034 -24.978 16.231
-36.794 -25.018 16.228
-36.564 -25.058 16.225
-36.324 -25.127 16.219
-36.084 -25.098 16.221
-35.844 -25.107 16.221
-35.614 -25.088 16.222
-35.374 -25.078 16.223
-35.144 -24.988 16.230
-34.914 -24.868 16.239
-34.674 -24.878 16.239
-34.444 -24.719 16.251
-34.214 -24.609 16.260
-33.984 -24.410 16.276
-33.754 -24.170 16.294
-33.544 -23.572 16.341
-33.314 -23.223 16.369
-33.104 -22.655 16.414
-32.874 -22.366 16.436
-32.654 -21.867 16.476
-32.424 -21.598 16.497
-32.214 -20.910 16.551
-31.984 -20.761 16.563
-31.764 -20.352 16.595
-31.534 -19.953 16.626
-31.324 -19.395 16.670
-31.084 -19.186 16.687
-30.864 -18.897 16.709
-30.624 -18.797 16.717
-30.394 -18.637 16.730
-30.154 -18.588 16.734
-29.924 -18.428 16.746
-29.684 -18.328 16.754
-29.454 -18.179 16.766
-29.224 -17.901 16.798
-28.994 -17.771 16.808
-28.764 -17.502 16.829
-28.534 -17.223 16.851
-28.294 -17.073 16.863
-28.064 -16.754 16.888
-27.834 -16.595 16.901
-27.604 -16.256 16.927
-27.374 -15.986 16.949
-27.144 -15.677 16.973
-26.904 -15.498 16.987
-26.674 -15.328 17.000
-26.434 -15.249 17.007
-26.204 -15.119 17.017
-25.964 -15.069 17.021
-25.724 -15.049 17.022
-25.484 -14.970 17.029
-25.244 -14.900 17.034
-25.014 -14.840 17.039
-24.774 -14.710 17.049
-24.534 -14.690 17.051
-24.294 -14.601 17.058
-24.054 -14.591 17.058
-23.824 -14.461 17.069
-23.584 -14.491 17.066
-23.344 -14.451 17.069
-23.094 -14.591 17.058
-22.854 -14.710 17.049
-22.614 -14.631 17.055
-22.374 -14.690 17.051
-22.134 -14.860 17.037
-21.894 -14.900 17.034
-21.644 -15.089 17.019
-21.404 -15.229 17.008
-21.164 -15.249 17.007
-20.924 -15.259 17.006
-20.684 -15.209 17.010
-20.444 -15.109 17.018
-20.214 -14.880 17.036
-19.984 -14.411 17.072
-19.754 -13.943 17.109
-19.514 -13.763 17.123
-19.274 -13.704 17.128
-19.044 -13.594 17.137
-18.804 -13.454 17.148
-18.564 -13.394 17.153
-18.334 -13.125 17.174
-18.094 -12.836 17.196
-17.864 -12.597 17.215
-17.614 -12.657 17.211
-17.374 -12.756 17.203
-17.134 -12.746 17.204
-16.894 -12.637 17.212
-16.664 -12.218 17.245
-15.974 -10.513 17.379
-16.204 -10.952 17.345
-15.734 -10.194 17.404
-15.504 -9.935 17.425
-15.264 -9.576 17.453
-15.024 -9.487 17.460
-14.784 -9.367 17.469
-14.554 -9.038 17.495
-14.304 -8.958 17.502
-14.064 -9.098 17.491
-13.824 -9.078 17.492
-13.584 -8.888 17.507
-13.344 -8.819 17.513
-13.104 -8.669 17.524
-12.874 -8.201 17.561
-12.634 -7.941 17.582
-12.404 -7.253 17.636
-12.154 -7.194 17.641
-11.914 -7.234 17.637
-11.674 -7.124 17.646
-11.434 -7.154 17.644
-11.194 -7.064 17.651
-10.954 -7.064 17.651
-10.704 -7.054 17.652
-10.474 -6.685 17.681
-10.234 -6.157 17.722
-9.764 -4.183 17.877
-10.004 -4.841 17.826
-9.534 -3.745 17.922
-9.294 -3.116 18.212
-9.294 -3.017 17.979
-8.584 -0.934 18.143
-8.824 -1.412 18.106
-8.344 -0.675 18.164
-8.104 -0.156 18.204
-7.854 -0.047 18.213
-7.614 0.203 18.233
-7.374 0.382 18.247
-7.134 0.552 18.260
-6.884 0.711 18.273
-6.644 0.781 18.278
-6.394 0.881 18.286
-6.154 0.980 18.294
-5.914 1.080 18.302
-5.664 1.090 18.302
-5.424 1.150 18.307
-5.174 1.170 18.309
-4.934 1.170 18.309
-4.684 1.210 18.312
-4.444 1.210 18.312
-4.204 1.379 18.325
-3.954 1.499 18.335
-3.714 1.549 18.339
-3.464 1.678 18.349
-3.224 1.629 18.586
-3.224 1.927 18.368
-46.524 -7.334 17.389
-46.794 -6.826 17.429
-46.274 -7.534 17.373
-46.014 -7.793 17.353
-45.764 -7.972 17.339
-45.524 -7.952 17.340
-45.264 -8.182 17.322
-45.014 -8.381 17.306
-44.774 -8.471 17.299
-44.514 -8.680 17.283
-44.274 -8.800 17.273
-44.024 -8.909 17.265
-43.774 -9.069 17.252
-43.524 -9.288 17.235
-43.274 -9.448 17.222
-43.024 -9.557 17.214
-42.774 -9.817 17.193
-42.504 -10.225 17.161
-42.244 -10.744 17.120
-41.984 -11.073 17.094
-39.474 -23.552 16.343
-39.204 -24.132 16.057
-39.454 -23.932 16.072
-38.964 -24.311 16.043
-38.714 -24.510 16.027
-38.474 -24.690 16.013
-38.234 -24.700 16.012
-37.994 -24.790 16.005
-37.754 -24.939 15.993
-37.504 -25.069 15.983
-37.264 -25.109 15.980
-37.024 -25.198 15.973
-36.784 -25.268 15.967
-36.544 -25.338 15.962
-36.304 -25.368 15.959
-36.074 -25.388 15.958
-35.834 -25.328 15.963
-35.604 -25.328 15.963
-35.364 -25.288 15.966
-35.134 -25.188 15.974
-34.904 -25.099 15.981
-34.664 -25.069 15.983
-34.434 -24.889 15.997
-34.204 -24.710 16.011
-33.974 -24.620 16.018
-33.744 -24.261 16.047
-33.524 -23.882 16.076
-33.304 -23.444 16.111
-33.084 -22.985 16.147
-32.864 -22.656 16.173
-32.644 -22.247 16.205
-32.424 -21.629 16.254
-32.194 -21.400 16.272
-31.974 -20.892 16.312
-31.754 -20.503 16.342
-31.534 -20.035 16.389
-31.314 -19.656 16.419
-31.084 -19.317 16.446
-30.854 -19.028 16.468
-30.624 -18.779 16.488
-30.394 -18.689 16.495
-30.154 -18.530 16.508
-29.924 -18.350 16.522
-29.684 -18.271 16.528
-29.454 -18.021 16.548
-29.224 -17.872 16.559
-28.994 -17.523 16.587
-28.764 -17.194 16.613
-28.534 -17.094 16.621
-28.304 -16.915 16.635
-28.064 -16.705 16.651
-27.834 -16.426 16.673
-27.604 -16.177 16.693
-27.374 -15.978 16.708
-27.144 -15.669 16.733
-26.914 -15.389 16.755
-26.674 -15.350 16.758
-26.434 -15.180 16.771
-26.204 -15.060 16.781
-25.964 -15.090 16.778
-25.724 -15.040 16.782
-25.484 -14.971 16.788
-25.254 -14.841 16.798
-25.014 -14.761 16.804
-24.774 -14.721 16.807
-24.534 -14.751 16.805
-24.294 -14.612 16.816
-24.054 -14.622 16.815
-23.814 -14.562 16.820
-23.574 -14.612 16.816
-23.334 -14.562 16.820
-23.094 -14.592 16.818
-22.854 -14.761 16.804
-22.614 -14.751 16.805
-22.374 -14.702 16.809
-22.134 -14.851 16.797
-21.894 -14.941 16.790
-21.644 -15.040 16.782
-21.404 -15.270 16.764
-21.164 -15.320 16.760
-20.924 -15.230 16.767
-20.684 -15.270 16.764
-20.444 -15.140 16.774
-20.214 -14.981 16.787
-19.974 -14.781 16.803
-19.744 -14.253 16.844
-19.514 -13.864 16.875
-19.274 -13.745 16.884
-19.034 -13.675 16.890
-18.804 -13.635 16.893
-18.564 -13.515 16.902
-18.324 -13.376 16.913
-18.094 -13.047 16.939
-17.854 -12.748 16.963
-17.624 -12.488 16.983
-17.374 -12.768 16.961
-17.134 -12.738 16.963
-16.894 -12.608 16.974
-16.664 -12.409 16.989
-16.434 -11.610 17.293
-16.434 -11.840 17.034
-16.194 -11.352 17.073
-15.964 -10.714 17.123
-15.734 -10.315 17.154
-15.494 -10.096 17.171
-15.254 -9.956 17.182
-15.024 -9.787 17.196
-14.784 -9.587 17.211
-14.544 -9.408 17.226
-14.304 -9.099 17.250
-14.064 -9.119 17.248
-13.824 -9.219 17.240
-13.584 -9.019 17.256
-13.344 -8.880 17.267
-13.104 -8.511 17.296
-12.874 -8.192 17.321
-12.634 -7.733 17.357
-12.394 -7.454 17.379
-12.154 -7.384 17.385
-11.914 -7.324 17.390
-11.674 -7.314 17.390
-11.434 -7.314 17.390
-11.184 -7.265 17.394
-10.944 -7.145 17.404
-10.704 -7.035 17.412
-10.464 -6.896 17.423
-10.234 -6.238 17.475
-9.774 -4.005 17.651
-10.004 -4.563 17.607
-9.524 -3.865 17.662
-9.294 -3.367 17.701
-9.054 -2.648 18.008
-9.054 -2.888 17.739
-7.854 -0.127 17.956
-8.094 -0.555 17.922
-7.614 0.003 17.966
-7.374 0.402 17.998
-7.124 0.551 18.009
-6.884 0.691 18.020
-6.644 0.761 18.026
-6.394 0.900 18.037
-6.154 1.000 18.045
-5.914 1.030 18.047
-5.664 1.070 18.050
-5.424 1.090 18.052
-5.174 1.060 18.049
-4.934 1.050 18.049
-4.684 1.129 18.055
-4.444 1.169 18.058
-4.204 1.329 18.071
-3.954 1.289 18.067
-3.714 1.359 18.073
-3.464 1.379 18.074
-3.224 1.588 18.091
-2.984 2.276 18.396
-2.974 1.847 18.111
-47.064 -6.377 17.464
-46.794 -6.817 17.189
-47.044 -6.608 17.205
-46.544 -6.967 17.177
-46.274 -7.415 17.142
-46.014 -7.754 17.115
-45.764 -7.944 17.100
-45.514 -8.013 17.095
-45.264 -8.273 17.074
-45.014 -8.432 17.062
-44.764 -8.611 17.047
-44.514 -8.811 17.032
-44.264 -8.970 17.019
-44.014 -9.010 17.016
-43.774 -9.040 17.014
-43.524 -9.170 17.004
-43.264 -9.479 16.979
-43.024 -9.579 16.971
-42.764 -9.947 16.942
-42.504 -10.366 16.909
-42.234 -10.785 16.876
-39.704 -23.673 16.093
-39.444 -24.143 15.825
-39.684 -24.104 15.828
-39.194 -24.423 15.803
-38.954 -24.542 15.794
-38.704 -24.682 15.783
-38.464 -24.831 15.771
-38.224 -24.881 15.767
-37.984 -25.011 15.757
-37.744 -25.051 15.754
-37.504 -25.190 15.743
-37.254 -25.340 15.731
-37.014 -25.380 15.728
-36.774 -25.469 15.721
-36.544 -25.459 15.722
-36.304 -25.519 15.717
-36.064 -25.499 15.718
-35.834 -25.499 15.718
-35.594 -25.489 15.719
-35.364 -25.420 15.725
-35.124 -25.370 15.729
-34.894 -25.280 15.736
-34.654 -25.210 15.741
-34.424 -25.101 15.750
-34.194 -24.961 15.761
-33.964 -24.742 15.778
-33.744 -24.462 15.800
-33.524 -24.054 15.832
-33.304 -23.585 15.869
-33.074 -23.266 15.894
-32.854 -22.967 15.918
-32.634 -22.419 15.961
-32.404 -22.070 15.988
-32.194 -21.591 16.026
-31.974 -21.083 16.066
-31.754 -20.634 16.101
-31.524 -20.176 16.137
-31.304 -19.737 16.172
-31.074 -19.468 16.193
-30.854 -19.079 16.224
-30.624 -18.790 16.246
-30.394 -18.631 16.259
-30.154 -18.491 16.270
-29.924 -18.282 16.286
-29.694 -18.102 16.301
-29.464 -17.853 16.320
-29.234 -17.614 16.339
-29.004 -17.434 16.353
-28.764 -17.175 16.373
-28.534 -16.916 16.394
-28.304 -16.816 16.402
-28.074 -16.557 16.422
-27.844 -16.308 16.442
-27.614 -16.019 16.465
-27.374 -15.929 16.472
-27.144 -15.580 16.499
-26.914 -15.410 16.512
-26.674 -15.301 16.521
-26.434 -15.221 16.527
-26.194 -15.191 16.530
-25.964 -15.081 16.538
-25.724 -14.902 16.552
-25.484 -14.862 16.556
-25.244 -14.892 16.553
-25.004 -14.882 16.554
-24.774 -14.703 16.568
-24.534 -14.673 16.570
-24.294 -14.623 16.574
-24.054 -14.623 16.574
-23.814 -14.603 16.576
-23.574 -14.613 16.575
-23.334 -14.583 16.577
-23.094 -14.593 16.577
-22.854 -14.713 16.567
-22.614 -14.723 16.567
-22.374 -14.762 16.563
-22.134 -14.782 16.562
-21.884 -14.942 16.549
-21.654 -14.902 16.552
-21.404 -15.251 16.525
-21.164 -15.321 16.519
-20.924 -15.281 16.523
-20.684 -15.291 16.522
-20.444 -15.271 16.523
-20.204 -15.151 16.533
-19.974 -14.972 16.547
-19.734 -14.603 16.576
-19.514 -13.915 16.630
-19.274 -13.696 16.647
-19.034 -13.736 16.644
-18.794 -13.696 16.647
-18.564 -13.566 16.658
-18.324 -13.367 16.673
-18.094 -12.948 16.706
-17.854 -12.878 16.712
-17.614 -12.579 16.735
-17.374 -12.619 16.732
-17.134 -12.649 16.730
-16.894 -12.579 16.735
-16.654 -12.440 16.746
-16.424 -12.111 16.772
-16.194 -11.463 16.823
-15.964 -10.775 16.877
-15.734 -10.436 16.904
-15.494 -10.316 16.913
-15.254 -10.167 16.925
-15.014 -9.957 16.942
-14.774 -9.748 16.958
-14.544 -9.579 16.971
-14.304 -9.200 17.001
-14.064 -9.180 17.003
-13.824 -9.230 16.999
-13.584 -9.120 17.007
-13.344 -8.970 17.019
-13.104 -8.691 17.041
-12.864 -8.382 17.066
-12.634 -7.963 17.098
-12.394 -7.744 17.116
-12.154 -7.615 17.126
-11.914 -7.415 17.142
-11.674 -7.425 17.141
-11.424 -7.395 17.143
-11.184 -7.335 17.148
-10.944 -7.256 17.154
-10.704 -7.026 17.172
-10.464 -6.677 17.200
-9.764 -4.165 17.397
-10.004 -4.434 17.376
-9.524 -4.006 17.410
-9.284 -3.587 17.443
-9.044 -3.308 17.465
-7.374 0.022 17.727
-7.614 -0.536 17.683
-7.124 0.351 17.753
-6.884 0.540 17.768
-6.644 0.670 17.778
-6.394 0.829 17.790
-6.154 0.929 17.798
-5.914 0.949 17.800
-5.664 1.019 17.805
-5.424 0.989 17.803
-5.174 0.999 17.804
-4.934 1.019 17.805
-4.684 0.949 17.800
-4.444 1.089 17.811
-4.204 1.158 17.816
-3.954 1.238 17.823
-3.714 1.328 17.830
-3.464 1.308 17.828
-3.224 1.388 17.834
-2.974 1.577 17.849
-2.734 2.077 18.129
-2.734 1.776 17.865
-46.784 -6.888 16.942
-47.034 -6.768 16.952
-46.534 -7.087 16.927
-46.264 -7.556 16.890
-46.014 -7.825 16.869
-45.764 -7.935 16.860
-45.504 -8.204 16.839
-45.254 -8.343 16.828
-45.004 -8.533 16.813
-44.754 -8.722 16.798
-44.504 -8.912 16.783
-44.254 -9.041 16.773
-44.014 -9.081 16.770
-43.764 -9.231 16.758
-43.514 -9.330 16.750
-43.274 -9.430 16.742
-43.024 -9.600 16.729
-42.764 -9.968 16.700
-42.494 -10.507 16.658
-42.234 -10.756 16.638
-39.434 -24.334 15.569
-39.684 -23.985 15.597
-39.194 -24.503 15.556
-38.944 -24.583 15.550
-38.704 -24.793 15.533
-38.454 -24.962 15.520
-38.214 -24.992 15.518
-37.974 -25.082 15.510
-37.734 -25.231 15.499
-37.494 -25.401 15.485
-37.254 -25.490 15.478
-37.004 -25.600 15.470
-36.764 -25.690 15.463
-36.534 -25.670 15.464
-36.294 -25.650 15.466
-36.064 -25.640 15.467
-35.824 -25.680 15.463
-35.584 -25.640 15.467
-35.344 -25.640 15.467
-35.114 -25.570 15.472
-34.884 -25.490 15.478
-34.644 -25.431 15.483
-34.414 -25.291 15.494
-34.184 -25.151 15.505
-33.954 -24.932 15.522
-33.734 -24.673 15.543
-33.514 -24.204 15.580
-33.294 -23.776 15.613
-33.064 -23.417 15.642
-32.844 -23.148 15.663
-32.624 -22.709 15.697
-32.394 -22.390 15.722
-32.174 -21.842 15.765
-31.954 -21.373 15.802
-31.744 -20.825 15.846
-31.524 -20.346 15.883
-31.304 -19.848 15.922
-31.074 -19.579 15.944
-30.844 -19.200 15.973
-30.624 -18.861 16.000
-30.394 -18.671 16.015
-30.154 -18.552 16.024
-29.924 -18.223 16.050
-29.694 -17.954 16.071
-29.464 -17.784 16.085
-29.234 -17.605 16.099
-29.004 -17.385 16.116
-28.764 -17.216 16.130
-28.534 -16.947 16.151
-28.304 -16.817 16.161
-28.074 -16.538 16.183
-27.844 -16.289 16.202
-27.604 -16.119 16.216
-27.374 -15.890 16.234
-27.144 -15.571 16.259
-26.904 -15.461 16.268
-26.674 -15.342 16.277
-26.434 -15.272 16.283
-26.194 -15.152 16.292
-25.964 -15.023 16.302
-25.724 -14.963 16.307
-25.484 -14.943 16.308
-25.254 -14.813 16.319
-25.004 -14.833 16.317
-24.774 -14.793 16.320
-24.534 -14.754 16.323
-24.294 -14.634 16.333
-24.054 -14.574 16.337
-23.814 -14.544 16.340
-23.574 -14.534 16.341
-23.334 -14.644 16.332
-23.094 -14.654 16.331
-22.854 -14.684 16.329
-22.614 -14.793 16.320
-22.374 -14.754 16.323
-22.134 -14.734 16.325
-21.884 -14.943 16.308
-21.644 -14.993 16.304
-21.404 -15.073 16.298
-21.164 -15.242 16.285
-20.914 -15.372 16.275
-20.684 -15.362 16.275
-20.444 -15.212 16.287
-20.204 -15.212 16.287
-19.974 -14.943 16.308
-19.734 -14.634 16.333
-19.504 -14.165 16.370
-19.274 -13.727 16.404
-19.034 -13.677 16.408
-18.794 -13.757 16.402
-18.554 -13.597 16.414
-18.324 -13.358 16.433
-18.094 -12.989 16.462
-17.854 -12.859 16.472
-17.614 -12.770 16.479
-17.384 -12.441 16.505
-17.144 -12.471 16.503
-16.904 -12.401 16.508
-16.654 -12.451 16.505
-16.424 -12.062 16.535
-16.194 -11.583 16.573
-15.954 -11.254 16.599
-15.724 -10.696 16.643
-15.494 -10.487 16.659
-15.254 -10.397 16.666
-15.014 -10.128 16.687
-14.774 -9.919 16.704
-14.534 -9.829 16.711
-14.304 -9.400 16.745
-14.064 -9.241 16.757
-13.824 -9.231 16.758
-13.574 -9.261 16.756
-13.344 -9.101 16.768
-13.104 -8.672 16.802
-12.864 -8.483 16.817
-12.634 -8.094 16.847
-12.394 -7.885 16.864
-12.144 -7.895 16.863
-11.914 -7.636 16.884
-11.674 -7.516 16.893
-11.424 -7.456 16.898
-11.184 -7.386 16.903
-10.944 -7.237 16.915
-10.704 -7.067 16.928
-10.464 -6.689 16.958
-9.764 -4.376 17.140
-10.004 -4.475 17.132
-9.524 -4.186 17.155
-9.284 -3.847 17.182
-9.044 -3.658 17.197
-8.814 -2.680 17.514
-8.804 -3.179 17.234
-6.884 0.240 17.503
-7.124 -0.129 17.474
-6.644 0.469 17.521
-6.394 0.669 17.537
-6.154 0.888 17.554
-5.904 0.868 17.553
-5.664 0.938 17.558
-5.424 1.057 17.568
-5.174 0.988 17.562
-4.934 0.968 17.561
-4.684 1.067 17.568
-4.444 1.207 17.579
-4.194 1.127 17.573
-3.954 1.137 17.574
-3.714 1.177 17.577
-3.464 1.237 17.582
-3.224 1.347 17.590
-2.974 1.496 17.602
-2.734 1.666 17.616
-2.484 1.986 17.881
-2.484 1.925 17.636
-47.294 -6.559 16.968
-47.024 -6.898 16.691
-47.274 -6.769 16.701
-46.784 -6.978 16.685
-46.524 -7.217 16.666
-46.264 -7.626 16.634
-46.004 -7.875 16.614
-45.754 -8.045 16.601
-45.504 -8.284 16.582
-45.254 -8.443 16.569
-45.004 -8.614 16.566
-44.744 -8.903 16.543
-44.504 -8.923 16.541
-44.254 -8.973 16.538
-44.014 -9.102 16.527
-43.754 -9.292 16.512
-43.514 -9.391 16.505
-43.264 -9.561 16.491
-43.014 -9.651 16.484
-42.754 -10.089 16.450
-42.494 -10.448 16.421
-42.234 -10.797 16.394
-39.434 -24.365 15.326
-39.684 -23.936 15.360
-39.184 -24.534 15.313
-38.944 -24.714 15.299
-38.694 -24.933 15.281
-38.454 -25.063 15.271
-38.214 -25.093 15.269
-37.974 -25.212 15.259
-37.724 -25.382 15.246
-37.484 -25.432 15.242
-37.244 -25.621 15.227
-37.004 -25.721 15.219
-36.764 -25.741 15.218
-36.524 -25.840 15.210
-36.294 -25.771 15.216
-36.054 -25.791 15.214
-35.814 -25.751 15.217
-35.584 -25.771 15.216
-35.344 -25.731 15.219
-35.114 -25.631 15.227
-34.874 -25.661 15.224
-34.644 -25.571 15.231
-34.404 -25.501 15.237
-34.174 -25.342 15.249
-33.944 -25.173 15.263
-33.724 -24.784 15.293
-33.514 -24.225 15.337
-33.284 -23.906 15.362
-33.064 -23.607 15.386
-32.834 -23.288 15.411
-32.614 -22.820 15.448
-32.384 -22.650 15.461
-32.164 -22.202 15.496
-31.944 -21.673 15.538
-31.734 -21.035 15.588
-31.514 -20.597 15.623
-31.294 -20.118 15.660
-31.064 -19.839 15.682
-30.844 -19.351 15.721
-30.614 -19.101 15.740
-30.384 -18.722 15.770
-30.154 -18.573 15.782
-29.924 -18.194 15.812
-29.694 -18.015 15.826
-29.464 -17.706 15.850
-29.234 -17.476 15.868
-29.004 -17.377 15.876
-28.774 -17.127 15.896
-28.534 -16.938 15.911
-28.304 -16.759 15.925
-28.074 -16.559 15.940
-27.844 -16.280 15.962
-27.604 -16.081 15.978
-27.374 -15.801 16.000
-27.144 -15.662 16.011
-26.904 -15.482 16.025
-26.674 -15.293 16.040
-26.434 -15.283 16.041
-26.194 -15.243 16.044
-25.964 -15.104 16.055
-25.724 -15.074 16.057
-25.484 -14.984 16.064
-25.244 -14.894 16.072
-25.014 -14.795 16.079
-24.764 -14.874 16.073
-24.534 -14.805 16.079
-24.294 -14.735 16.084
-24.054 -14.595 16.095
-23.814 -14.496 16.103
-23.574 -14.496 16.103
-23.334 -14.635 16.092
-23.094 -14.695 16.087
-22.854 -14.715 16.086
-22.614 -14.755 16.082
-22.374 -14.795 16.079
-22.134 -14.755 16.082
-21.894 -14.834 16.076
-21.654 -14.884 16.072
-21.404 -14.944 16.068
-21.164 -15.163 16.050
-20.914 -15.353 16.035
-20.674 -15.373 16.034
-20.444 -15.333 16.037
-20.204 -15.193 16.048
-19.964 -15.074 16.057
-19.734 -14.815 16.078
-19.504 -14.376 16.112
-19.274 -13.738 16.163
-19.044 -13.578 16.175
-18.794 -13.648 16.170
-18.554 -13.578 16.175
-18.324 -13.449 16.185
-18.094 -13.000 16.221
-17.854 -12.831 16.234
-17.614 -12.671 16.246
-17.384 -12.292 16.276
-17.144 -12.183 16.285
-16.904 -12.233 16.281
-16.664 -12.242 16.280
-16.434 -11.824 16.313
-16.194 -11.385 16.348
-15.964 -11.146 16.367
-15.724 -10.867 16.388
-15.484 -10.697 16.402
-15.244 -10.667 16.404
-15.004 -10.458 16.421
-14.774 -10.129 16.447
-14.534 -9.960 16.460
-14.294 -9.601 16.488
-14.064 -9.252 16.516
-13.824 -9.252 16.516
-13.584 -9.132 16.525
-13.344 -9.042 16.532
-13.104 -8.604 16.567
-12.864 -8.604 16.567
-12.634 -8.075 16.598
-12.384 -7.955 16.608
-12.144 -7.895 16.612
-11.914 -7.596 16.636
-11.664 -7.646 16.632
-11.424 -7.556 16.639
-11.184 -7.496 16.644
-10.944 -7.307 16.659
-10.704 -6.858 16.694
-10.464 -6.719 16.705
-9.764 -4.565 16.874
-10.004 -4.685 16.865
-9.524 -4.217 16.902
-9.284 -4.007 16.918
-9.044 -3.678 16.944
-8.804 -3.529 16.956
-6.634 -0.079 17.227
-6.874 -0.378 17.204
-6.394 0.379 17.264
-6.154 0.728 17.291
-5.904 0.898 17.304
-5.664 0.938 17.307
-5.424 0.898 17.304
-5.174 0.908 17.305
-4.934 0.928 17.307
-4.684 1.027 17.315
-4.444 0.967 17.310
-4.194 1.007 17.313
-3.954 1.177 17.326
-3.714 1.276 17.334
-3.464 1.306 17.337
-3.224 1.476 17.350
-2.974 1.426 17.346
-2.734 1.615 17.361
-2.484 1.805 17.376
-47.024 -7.009 16.441
-47.274 -6.820 16.456
-46.774 -7.089 16.435
-46.524 -7.328 16.416
-46.254 -7.697 16.387
-46.004 -7.946 16.368
-45.744 -8.165 16.350
-45.494 -8.335 16.337
-45.244 -8.584 16.317
-44.994 -8.754 16.304
-44.744 -8.913 16.291
-44.494 -8.973 16.287
-44.254 -9.033 16.282
-44.004 -9.142 16.273
-43.754 -9.322 16.259
-43.514 -9.392 16.254
-43.264 -9.521 16.244
-43.014 -9.631 16.235
-42.754 -10.000 16.206
-42.484 -10.628 16.157
-42.224 -10.958 16.141
-40.244 -22.291 15.489
-39.984 -22.700 15.457
-39.974 -22.861 15.204
-40.234 -22.472 15.234
-39.434 -24.306 15.090
-39.694 -23.898 15.122
-39.184 -24.646 15.073
-38.934 -24.756 15.065
-38.684 -25.045 15.042
-38.444 -25.184 15.031
-38.204 -25.264 15.025
-37.964 -25.374 15.016
-37.724 -25.473 15.008
-37.484 -25.583 15.000
-37.234 -25.693 14.991
-36.994 -25.802 14.982
-36.754 -25.882 14.976
-36.514 -25.942 14.971
-36.284 -25.952 14.971
-36.044 -25.972 14.969
-35.814 -25.862 14.978
-35.574 -25.892 14.975
-35.334 -25.852 14.978
-35.104 -25.743 14.987
-34.874 -25.733 14.988
-34.634 -25.693 14.991
-34.404 -25.563 15.001
-34.174 -25.473 15.008
-33.934 -25.404 15.014
-33.724 -24.845 15.058
-33.504 -24.336 15.088
-33.284 -24.067 15.109
-33.054 -23.838 15.127
-32.824 -23.509 15.153
-32.604 -23.200 15.177
-32.374 -22.980 15.194
-32.154 -22.492 15.233
-31.924 -22.203 15.256
-31.714 -21.495 15.311
-31.494 -21.056 15.346
-31.284 -20.329 15.403
-31.064 -19.850 15.441
-30.834 -19.501 15.468
-30.604 -19.182 15.493
-30.384 -18.734 15.529
-30.154 -18.514 15.546
-29.924 -18.265 15.565
-29.694 -17.996 15.587
-29.464 -17.776 15.604
-29.234 -17.448 15.630
-29.004 -17.248 15.646
-28.774 -17.039 15.662
-28.534 -16.849 15.677
-28.304 -16.680 15.690
-28.074 -16.510 15.704
-27.834 -16.411 15.711
-27.604 -16.191 15.729
-27.374 -15.972 15.746
-27.144 -15.663 15.770
-26.904 -15.454 15.787
-26.664 -15.414 15.790
-26.434 -15.294 15.799
-26.194 -15.224 15.805
-25.954 -15.115 15.813
-25.724 -15.095 15.815
-25.484 -15.025 15.820
-25.244 -14.955 15.826
-25.004 -14.935 15.828
-24.764 -14.945 15.827
-24.524 -14.856 15.834
-24.294 -14.786 15.839
-24.054 -14.666 15.849
-23.814 -14.566 15.857
-23.574 -14.616 15.853
-23.334 -14.626 15.852
-23.094 -14.746 15.842
-22.854 -14.786 15.839
-22.614 -14.816 15.837
-22.364 -14.875 15.832
-22.134 -14.836 15.835
-21.894 -14.796 15.839
-21.654 -14.766 15.841
-21.414 -14.865 15.833
-21.164 -14.905 15.830
-20.914 -15.374 15.793
-20.674 -15.494 15.784
-20.434 -15.424 15.789
-20.204 -15.344 15.795
-19.964 -15.015 15.821
-19.724 -14.945 15.827
-19.494 -14.646 15.850
-19.274 -13.898 15.909
-19.044 -13.560 15.936
-18.794 -13.579 15.934
-18.554 -13.639 15.930
-18.324 -13.520 15.939
-18.094 -13.031 15.977
-17.854 -12.882 15.989
-17.614 -12.782 15.997
-17.384 -12.413 16.026
-17.144 -12.154 16.046
-16.904 -12.244 16.039
-16.664 -12.124 16.049
-16.434 -11.606 16.090
-16.194 -11.326 16.112
-15.954 -11.277 16.115
-15.724 -11.007 16.137
-15.484 -10.848 16.149
-15.244 -10.757 16.146
-15.004 -10.708 16.150
-14.764 -10.508 16.166
-14.524 -10.209 16.189
-14.294 -9.830 16.219
-14.054 -9.491 16.246
-13.824 -9.302 16.261
-13.584 -9.103 16.277
-13.344 -9.053 16.280
-13.104 -8.803 16.300
-12.864 -8.574 16.318
-12.624 -8.096 16.356
-12.384 -8.145 16.352
-12.144 -8.235 16.345
-11.904 -7.896 16.371
-11.664 -7.906 16.371
-11.424 -7.647 16.391
-11.184 -7.507 16.402
-10.944 -7.308 16.418
-10.704 -6.989 16.443
-10.464 -6.730 16.463
-10.234 -5.951 16.765
-10.224 -6.421 16.488
-9.764 -4.716 16.622
-10.004 -4.905 16.607
-9.524 -4.387 16.648
-9.284 -4.208 16.662
-9.044 -3.998 16.678
-8.804 -3.729 16.699
-8.564 -3.299 16.974
-8.554 -3.560 16.713
-8.324 -3.080 16.991
-8.314 -3.520 16.716
-5.904 0.687 17.047
-6.154 0.578 17.038
-5.664 0.817 17.057
-5.424 0.916 17.065
-5.174 0.827 17.058
-4.934 0.897 17.064
-4.684 0.966 17.069
-4.444 0.976 17.070
-4.194 1.106 17.080
-3.954 1.236 17.090
-3.714 1.236 17.090
-3.464 1.196 17.087
-3.224 1.315 17.096
-2.974 1.555 17.115
-2.734 1.744 17.130
-2.484 1.834 17.137
-2.244 2.164 17.404
-2.244 2.013 17.151
-47.014 -7.100 16.193
-47.264 -6.950 16.205
-46.764 -7.259 16.181
-46.514 -7.469 16.164
-46.254 -7.748 16.142
-45.994 -8.007 16.122
-45.744 -8.286 16.100
-45.494 -8.396 16.091
-45.234 -8.685 16.069
-44.984 -8.874 16.054
-44.744 -8.874 16.054
-44.504 -8.874 16.054
-44.254 -9.064 16.039
-44.014 -9.064 16.039
-43.764 -9.193 16.029
-43.514 -9.323 16.018
-43.264 -9.522 16.003
-43.014 -9.672 15.991
-42.754 -9.951 15.969
-42.504 -10.300 15.942
-42.234 -10.858 15.898
-39.974 -22.853 14.974
-40.224 -22.653 14.989
-39.444 -24.149 14.872
-39.694 -23.750 14.903
-39.194 -24.388 14.853
-38.944 -24.557 14.840
-38.704 -24.597 14.836
-38.454 -25.046 14.801
-38.204 -25.265 14.784
-37.964 -25.405 14.773
-37.724 -25.495 14.766
-37.474 -25.604 14.757
-37.234 -25.794 14.742
-36.994 -25.804 14.741
-36.754 -25.853 14.738
-36.524 -25.893 14.734
-36.284 -25.893 14.734
-36.044 -25.943 14.730
-35.804 -25.993 14.727
-35.574 -25.913 14.733
-35.334 -25.923 14.732
-35.104 -25.873 14.736
-34.864 -25.814 14.741
-34.634 -25.764 14.745
-34.404 -25.624 14.756
-34.164 -25.514 14.764
-33.944 -25.195 14.789
-33.734 -24.617 14.835
-33.504 -24.238 14.865
-33.274 -24.089 14.876
-33.044 -23.969 14.886
-32.814 -23.700 14.907
-32.594 -23.441 14.927
-32.364 -23.251 14.942
-32.144 -22.793 14.978
-31.924 -22.334 15.015
-31.694 -21.936 15.046
-31.484 -21.187 15.095
-31.274 -20.529 15.147
-31.054 -20.001 15.188
-30.834 -19.602 15.220
-30.604 -19.303 15.243
-30.384 -18.894 15.275
-30.154 -18.585 15.300
-29.924 -18.176 15.332
-29.694 -17.897 15.354
-29.464 -17.638 15.374
-29.234 -17.528 15.383
-29.004 -17.279 15.402
-28.774 -17.090 15.417
-28.544 -16.801 15.440
-28.304 -16.641 15.453
-28.074 -16.422 15.470
-27.844 -16.202 15.487
-27.604 -16.063 15.498
-27.374 -15.883 15.512
-27.134 -15.714 15.526
-26.904 -15.525 15.540
-26.664 -15.395 15.551
-26.434 -15.335 15.555
-26.194 -15.275 15.560
-25.954 -15.166 15.569
-25.724 -15.086 15.575
-25.484 -15.026 15.580
-25.244 -15.006 15.581
-25.004 -14.906 15.589
-24.764 -14.867 15.592
-24.524 -14.807 15.597
-24.294 -14.787 15.598
-24.054 -14.717 15.604
-23.814 -14.568 15.616
-23.574 -14.518 15.620
-23.334 -14.647 15.609
-23.084 -14.827 15.595
-22.854 -14.817 15.596
-22.614 -14.797 15.598
-22.374 -14.797 15.598
-22.134 -14.807 15.597
-21.894 -14.717 15.604
-21.654 -14.617 15.612
-21.414 -14.568 15.616
-21.174 -14.707 15.605
-20.924 -14.986 15.583
-20.674 -15.375 15.552
-20.434 -15.455 15.546
-20.204 -15.325 15.556
-19.964 -15.106 15.573
-19.724 -15.016 15.580
-19.494 -14.807 15.597
-19.264 -14.099 15.653
-19.044 -13.531 15.697
-18.804 -13.481 15.701
-18.564 -13.511 15.699
-18.324 -13.501 15.700
-18.094 -12.962 15.742
-17.854 -12.903 15.747
-17.614 -12.813 15.754
-17.384 -12.265 15.797
-17.144 -11.956 15.821
-16.904 -12.005 15.817
-16.664 -12.015 15.817
-16.434 -11.397 15.855
-16.194 -11.287 15.864
-15.954 -11.217 15.869
-15.724 -10.908 15.894
-15.484 -10.878 15.896
-15.244 -10.759 15.905
-15.004 -10.719 15.909
-14.764 -10.569 15.920
-14.524 -10.400 15.934
-14.284 -10.120 15.956
-14.054 -9.682 15.990
-13.814 -9.323 16.018
-13.584 -9.193 16.029
-13.334 -9.104 16.036
-13.104 -8.785 16.061
-12.864 -8.555 16.079
-12.624 -8.196 16.107
-12.384 -8.167 16.109
-12.144 -8.216 16.106
-11.904 -8.037 16.120
-11.664 -7.897 16.131
-11.424 -7.798 16.139
-11.184 -7.668 16.149
-10.944 -7.578 16.156
-10.704 -7.319 16.176
-10.464 -6.960 16.204
-10.224 -6.661 16.228
-9.764 -4.797 16.375
-10.004 -5.066 16.353
-9.524 -4.578 16.392
-9.284 -4.328 16.412
-9.034 -4.139 16.426
-8.794 -4.069 16.432
-8.554 -3.930 16.443
-8.314 -3.770 16.455
-8.074 -3.101 16.749
-8.074 -3.511 16.476
-7.834 -2.692 16.781
-7.834 -3.232 16.498
-5.904 0.368 16.771
-6.144 -0.021 16.741
-5.664 0.687 16.796
-5.414 0.707 16.798
-5.174 0.866 16.810
-4.934 0.936 16.816
-4.684 0.916 16.814
-4.444 0.886 16.812
-4.194 0.936 16.816
-3.954 1.046 16.824
-3.714 1.116 16.830
-3.464 1.106 16.829
-3.224 1.185 16.835
-2.974 1.295 16.844
-2.734 1.604 16.868
-2.484 1.714 16.877
-2.244 1.903 16.892
-2.004 2.153 17.162
-2.004 1.983 16.898
-47.014 -7.111 15.952
-47.254 -7.051 15.957
-46.764 -7.310 15.936
-46.504 -7.599 15.913
-46.244 -7.859 15.893
-45.994 -8.078 15.876
-45.744 -8.297 15.858
-45.484 -8.497 15.843
-45.234 -8.776 15.821
-44.984 -8.856 15.815
-44.744 -8.935 15.808
-44.494 -8.925 15.809
-44.254 -8.925 15.809
-44.004 -9.105 15.795
-43.754 -9.304 15.779
-43.504 -9.404 15.771
-43.264 -9.523 15.762
-43.014 -9.693 15.749
-42.754 -9.992 15.725
-42.504 -10.281 15.702
-42.224 -10.899 15.654
-40.474 -22.284 15.018
-40.214 -22.744 14.742
-40.464 -22.555 14.756
-39.974 -22.854 14.733
-39.454 -23.791 14.659
-39.714 -23.342 14.694
-39.214 -23.920 14.649
-38.984 -23.831 14.656
-38.734 -23.960 14.646
-38.474 -24.489 14.604
-38.214 -25.067 14.559
-37.964 -25.296 14.541
-37.714 -25.526 14.523
-37.474 -25.575 14.519
-37.234 -25.655 14.512
-37.004 -25.715 14.508
-36.764 -25.635 14.514
-36.524 -25.745 14.505
-36.284 -25.785 14.502
-36.054 -25.695 14.509
-35.814 -25.765 14.504
-35.574 -25.745 14.505
-35.344 -25.605 14.516
-35.104 -25.765 14.504
-34.874 -25.705 14.508
-34.634 -25.655 14.512
-34.404 -25.516 14.523
-34.184 -25.187 14.549
-33.954 -24.838 14.577
-33.734 -24.429 14.609
-33.504 -24.279 14.621
-33.274 -24.249 14.623
-33.034 -24.110 14.634
-32.814 -23.901 14.651
-32.584 -23.661 14.669
-32.354 -23.412 14.689
-32.134 -22.973 14.723
-31.904 -22.724 14.743
-31.684 -22.206 14.784
-31.464 -21.677 14.825
-31.254 -21.000 14.879
-31.044 -20.202 14.942
-30.824 -19.643 14.976
-30.604 -19.294 15.003
-30.374 -19.005 15.026
-30.144 -18.716 15.049
-29.924 -18.347 15.078
-29.694 -17.938 15.110
-29.464 -17.639 15.133
-29.234 -17.340 15.157
-29.004 -17.260 15.163
-28.764 -17.131 15.173
-28.534 -16.862 15.194
-28.304 -16.732 15.205
-28.074 -16.443 15.227
-27.834 -16.283 15.240
-27.604 -16.054 15.258
-27.374 -15.855 15.274
-27.134 -15.745 15.282
-26.904 -15.635 15.291
-26.664 -15.486 15.303
-26.434 -15.336 15.314
-26.194 -15.316 15.316
-25.954 -15.237 15.322
-25.714 -15.147 15.329
-25.474 -15.147 15.329
-25.244 -15.087 15.334
-25.004 -14.997 15.341
-24.764 -14.878 15.351
-24.524 -14.888 15.350
-24.294 -14.758 15.360
-24.054 -14.768 15.359
-23.814 -14.718 15.363
-23.574 -14.748 15.361
-23.334 -14.718 15.363
-23.084 -14.878 15.351
-22.844 -14.888 15.350
-22.614 -14.808 15.356
-22.374 -14.778 15.358
-22.134 -14.748 15.361
-21.894 -14.758 15.360
-21.654 -14.688 15.365
-21.414 -14.569 15.375
-21.174 -14.638 15.369
-20.934 -14.748 15.361
-20.684 -14.997 15.341
-20.434 -15.456 15.305
-20.194 -15.476 15.304
-19.964 -15.276 15.319
-19.724 -15.147 15.329
-19.484 -15.057 15.336
-19.254 -14.628 15.370
-19.034 -13.761 15.438
-18.794 -13.602 15.451
-18.564 -13.482 15.460
-18.324 -13.432 15.464
-18.094 -12.964 15.501
-17.854 -12.794 15.515
-17.614 -12.515 15.537
-17.384 -12.056 15.563
-17.144 -11.896 15.575
-16.904 -11.916 15.574
-16.664 -11.876 15.577
-16.434 -11.378 15.616
-16.194 -11.358 15.618
-15.964 -11.049 15.642
-15.724 -10.839 15.658
-15.484 -10.899 15.654
-15.244 -10.949 15.650
-14.994 -10.969 15.648
-14.764 -10.839 15.658
-14.524 -10.700 15.669
-14.284 -10.311 15.700
-14.054 -9.982 15.726
-13.814 -9.494 15.764
-13.574 -9.294 15.780
-13.334 -9.085 15.796
-13.104 -8.895 15.811
-12.864 -8.507 15.842
-12.624 -8.227 15.864
-12.384 -8.267 15.861
