-17.3500 21.5400 7.9400
-17.1400 21.5600 7.9100
-17.3800 21.5900 7.9600
-17.1700 21.6000 7.9200
-17.1500 21.5700 7.9100
-17.2000 21.6400 7.9300
-16.9900 21.6400 7.9000
-17.2500 21.6900 7.9500
-17.0300 21.6900 7.9100
-16.8300 21.7100 7.8900
-17.0800 21.7500 7.9400
-17.0600 21.7300 7.9300
-16.8700 21.7600 7.9000
-16.8500 21.7300 7.8900
-17.1100 21.7900 7.9500
-16.9200 21.8200 7.9200
-16.9000 21.8000 7.9200
-16.7100 21.8300 7.8900
-18.0500 21.8500 7.8500
-16.9300 21.8400 7.9300
-16.7300 21.8500 7.9000
-16.9800 21.9000 7.9500
-16.7800 21.9200 7.9200
-16.7600 21.9000 7.9100
-16.6000 21.9600 7.9000
-18.1400 21.9600 7.8800
-17.0300 21.9600 7.9800
-16.7900 21.9300 7.9300
-16.6300 22.0000 7.9200
-18.6400 22.0100 7.9800
-18.3900 21.9900 7.9400
-16.8300 21.9900 7.9500
-16.6600 22.0400 7.9300
-16.4500 22.0500 7.9000
-18.6800 22.0600 8.0000
-18.4400 22.0400 7.9500
-18.2100 22.0500 7.9200
-18.1900 22.0200 7.9100
-16.6800 22.0800 7.9400
-16.4900 22.1000 7.9200
-16.2800 22.0900 7.8800
-18.7300 22.1200 8.0200
-18.4700 22.0900 7.9700
-18.2700 22.1200 7.9400
-18.2500 22.1000 7.9300
-16.5400 22.1700 7.9400
-16.5100 22.1200 7.9200
-16.3300 22.1600 7.9000
-16.3000 22.1300 7.8900
-18.7500 22.1400 8.0300
-18.5200 22.1400 7.9900
-18.5300 22.1500 7.9900
-18.3000 22.1500 7.9500
-16.7400 22.1500 7.9700
-16.3500 22.2000 7.9100
-16.1500 22.2000 7.8800
-18.7900 22.1900 8.0500
-18.5800 22.2200 8.0200
-18.5500 22.1800 8.0000
-18.3400 22.2000 7.9700
-18.1100 22.2000 7.9300
-16.3800 22.2400 7.9300
-16.1800 22.2500 7.9000
-15.9800 22.2600 7.8700
-15.5500 22.2300 7.7900
-18.8300 22.2300 8.0600
-18.1500 22.2400 7.9500
-16.4200 22.2900 7.9500
-16.2200 22.3000 7.9100
-16.2100 22.2900 7.9100
-16.0200 22.3200 7.8900
-16.0100 22.2900 7.8800
-18.9000 22.3100 8.0900
-18.1900 22.3000 7.9700
-17.9800 22.3200 7.9300
-16.2600 22.3600 7.9300
-16.0500 22.3600 7.9000
-16.0300 22.3300 7.8900
-15.8300 22.3300 7.8600
-18.9200 22.3400 8.1000
-18.2400 22.3600 7.9900
-18.2100 22.3200 7.9700
-18.0200 22.3700 7.9500
-17.9900 22.3400 7.9400
-16.0800 22.4000 7.9100
-15.8700 22.3900 7.8800
-15.6700 22.4000 7.8500
-18.0500 22.4100 7.9600
-17.3600 22.3800 7.8400
-16.1200 22.4500 7.9300
-15.9200 22.4600 7.9000
-15.9000 22.4400 7.8900
-15.9000 22.4300 7.8900
-15.7100 22.4600 7.8700
-18.5300 22.4400 8.0600
-18.0900 22.4600 7.9800
-18.0600 22.4200 7.9700
-17.8700 22.4600 7.9500
-17.8500 22.4400 7.9400
-15.9500 22.5100 7.9200
-15.7500 22.5100 7.8800
-18.1200 22.4900 7.9900
-17.9000 22.5000 7.9600
-17.6700 22.4900 7.9200
-17.9400 22.5500 7.9800
-17.7200 22.5600 7.9400
-17.7100 22.5400 7.9300
-17.4800 22.5400 7.9000
-17.2700 22.5400 7.8600
-17.2600 22.5300 7.8600
-17.9700 22.5900 7.9900
-17.7400 22.5800 7.9500
-16.0500 22.6400 7.9700
-17.8000 22.6500 7.9700
-17.5800 22.6700 7.9400
-17.3400 22.6400 7.8900
-17.3300 22.6300 7.8900
-16.0700 22.6800 7.9800
-17.6000 22.6800 7.9500
-17.4000 22.7200 7.9200
-17.1800 22.7200 7.8800
-18.9500 22.7300 7.9300
-17.6500 22.7600 7.9700
-17.4300 22.7600 7.9300
-17.2000 22.7400 7.8900
-17.6800 22.7900 7.9800
-17.4600 22.7900 7.9500
-17.2400 22.8000 7.9100
-17.0100 22.7800 7.8700
-16.6200 22.8400 7.8200
-19.0500 22.8600 7.9700
-18.8100 22.8500 7.9300
-17.4800 22.8300 7.9600
-17.2800 22.8500 7.9300
-17.0700 22.8700 7.9000
-16.8500 22.8600 7.8600
-19.0600 22.8700 7.9800
-18.8600 22.9100 7.9500
-17.3200 22.9000 7.9500
-17.3100 22.8900 7.9400
-17.0900 22.8900 7.9100
-16.7100 22.9600 7.8600
-16.4700 22.9300 7.8200
-19.3700 22.9500 8.0500
-19.3500 22.9300 8.0400
-19.1300 22.9500 8.0000
-19.1100 22.9300 8.0000
-18.9000 22.9600 7.9700
-17.5800 22.9500 8.0000
-17.1400 22.9500 7.9300
-16.9300 22.9600 7.9000
-16.9000 22.9300 7.8900
-19.1700 23.0000 8.0200
-18.9300 22.9900 7.9800
-17.1700 22.9900 7.9400
-17.1600 22.9800 7.9400
-16.9600 23.0000 7.9100
-16.3500 23.0500 7.8200
-19.2200 23.0700 8.0400
-19.1900 23.0300 8.0300
-18.9900 23.0700 8.0000
-18.9500 23.0200 7.9900
-18.9600 23.0300 7.9900
-17.2100 23.0400 7.9600
-17.0000 23.0600 7.9300
-16.7800 23.0600 7.8900
-16.7700 23.0500 7.8900
-16.6000 23.1100 7.8800
-16.3800 23.0900 7.8400
-16.3900 23.1200 7.8400
-16.3600 23.0800 7.8300
-16.1800 23.1200 7.8100
-16.1500 23.0700 7.8000
-19.4800 23.0900 8.0900
-19.2300 23.0800 8.0500
-18.9900 23.0800 8.0100
-18.7700 23.1000 7.9700
-18.5600 23.1200 7.9400
-17.0100 23.0800 7.9400
-16.8200 23.1200 7.9100
-16.7900 23.0700 7.9000
-16.6400 23.1700 7.9000
-16.6200 23.1400 7.8900
-16.6100 23.1200 7.8800
-16.4000 23.1300 7.8500
-19.5300 23.1400 8.1100
-19.2800 23.1300 8.0700
-19.0400 23.1300 8.0300
-18.8200 23.1500 7.9900
-16.8400 23.1400 7.9200
-16.6600 23.2000 7.9100
-16.4600 23.2200 7.8800
-16.4300 23.1700 7.8600
-16.2300 23.1900 7.8300
-16.2400 23.2100 7.8400
-18.8700 23.2200 8.0200
-18.8500 23.1900 8.0000
-18.6400 23.2200 7.9800
-18.6100 23.1900 7.9700
-16.6900 23.2400 7.9200
-16.5000 23.2700 7.9000
-16.4800 23.2500 7.8900
-16.2800 23.2600 7.8600
-19.1200 23.2400 8.0600
-18.8900 23.2400 8.0300
-18.6700 23.2500 7.9900
-18.6600 23.2500 7.9900
-16.5200 23.3000 7.9100
-16.3200 23.3100 7.8800
-16.1100 23.3200 7.8500
-18.9200 23.2700 8.0400
-18.9500 23.3100 8.0500
-18.6900 23.2800 8.0000
-18.4800 23.3100 7.9700
-16.7300 23.2900 7.9400
-16.3500 23.3600 7.8900
-16.3400 23.3400 7.8900
-19.2400 23.3500 7.7700
-18.7400 23.3400 8.0200
-18.5000 23.3400 7.9800
-18.2600 23.3300 7.9400
-16.6000 23.4100 7.9400
-16.3800 23.4000 7.9100
-19.5400 23.4200 7.8400
-19.2900 23.4100 7.7900
-19.2600 23.3700 7.7800
-18.7700 23.3900 8.0300
-18.5400 23.3900 8.0000
-16.6200 23.4300 7.9500
-19.5500 23.4300 7.8400
-19.3400 23.4600 7.8100
-19.3100 23.4300 7.8000
-18.8000 23.4200 8.0500
-18.5900 23.4500 8.0200
-18.1100 23.4300 7.9300
-19.6200 23.5100 7.8700
-19.5900 23.4800 7.8600
-19.3500 23.4800 7.8200
-19.1300 23.5100 7.7900
-19.1400 23.5200 7.7900
-19.1100 23.4900 7.7800
-18.6200 23.4900 8.0300
-18.6100 23.4800 8.0300
-18.3800 23.4800 7.9900
-18.4100 23.5200 8.0000
-16.4900 23.5700 7.9600
-19.4000 23.5500 7.8400
-19.4100 23.5600 7.8400
-19.1700 23.5600 7.8100
-19.1500 23.5300 7.8000
-18.9300 23.5600 7.7700
-18.6800 23.5700 8.0600
-18.6600 23.5400 8.0500
-18.4300 23.5500 8.0100
-18.4100 23.5200 8.0000
-18.2100 23.5600 7.9800
-19.6800 23.5900 7.9000
-19.4600 23.6100 7.8600
-19.1900 23.5800 7.8100
-18.9700 23.6100 7.7800
-18.9400 23.5700 7.7700
-18.4800 23.6200 8.0300
-18.4600 23.5800 8.0200
-18.2400 23.6000 7.9900
-18.2500 23.6100 7.9900
-18.0100 23.6000 7.9500
-19.2400 23.6400 7.8300
-19.0200 23.6700 7.8000
-18.9900 23.6200 7.7900
-19.0000 23.6500 7.8000
-18.5000 23.6400 8.0400
-18.2800 23.6600 8.0100
-18.2600 23.6200 8.0000
-18.0600 23.6600 7.9700
-19.7700 23.7000 7.9300
-19.2700 23.6700 7.8400
-19.0400 23.6900 7.8100
-18.8200 23.7100 7.7800
-18.3200 23.7000 8.0300
-18.3100 23.6900 8.0200
-18.0900 23.7000 7.9900
-18.1000 23.7200 7.9900
-19.8300 23.7600 7.9500
-19.0900 23.7500 7.8300
-19.0600 23.7200 7.8200
-18.8400 23.7400 7.7900
-18.8500 23.7600 7.7900
-18.1300 23.7500 8.0100
-18.1100 23.7300 8.0000
-17.8900 23.7500 7.9700
-19.1100 23.7700 7.8400
-18.8900 23.8000 7.8100
-18.6300 23.7700 7.7600
-18.1700 23.8100 8.0200
-18.1400 23.7700 8.0100
-17.9300 23.8000 7.9800
-19.9000 23.8400 7.9800
-18.9200 23.8400 7.8200
-18.6900 23.8500 7.7900
-18.7000 23.8600 7.7900
-18.1800 23.8300 8.0300
-17.9800 23.8600 8.0000
-17.9600 23.8300 7.9900
-17.7500 23.8700 7.9700
-17.0500 23.8200 7.8500
-18.9800 23.9200 7.8500
-18.9500 23.8700 7.8300
-18.7200 23.8900 7.8000
-18.7100 23.8800 7.8000
-18.0200 23.9200 8.0200
-17.9900 23.8800 8.0100
-17.7900 23.9100 7.9800
-17.7600 23.8800 7.9700
-17.5600 23.9200 7.9500
-17.3300 23.9100 7.9100
-17.1200 23.9200 7.8800
-17.1100 23.9100 7.8800
-18.7800 23.9600 7.8200
-18.7500 23.9300 7.8100
-18.5400 23.9600 7.7900
-18.0300 23.9300 8.0300
-17.8200 23.9600 8.0000
-17.8000 23.9300 7.9900
-17.8100 23.9400 7.9900
-17.5900 23.9600 7.9600
-18.5700 24.0000 7.8000
-18.5500 23.9800 7.7900
-18.5600 23.9800 7.7900
-17.8700 24.0200 8.0200
-17.8500 24.0000 8.0100
-17.6300 24.0100 7.9800
-17.6100 23.9800 7.9700
-17.1700 23.9900 7.9000
-18.6000 24.0400 7.8100
-18.3900 24.0600 7.7800
-17.8900 24.0500 8.0300
-17.6700 24.0600 8.0000
-17.6400 24.0300 7.9900
-17.6600 24.0500 7.9900
-17.4300 24.0400 7.9600
-17.2000 24.0400 7.9200
-18.6400 24.0900 7.8300
-18.4200 24.1100 7.8000
-18.4000 24.0800 7.7900
-18.4100 24.0900 7.7900
-18.1800 24.1000 7.7600
-17.6800 24.0800 8.0000
-17.4800 24.1100 7.9800
-17.4600 24.0800 7.9700
-17.2400 24.0900 7.9400
-17.0200 24.1000 7.9100
-20.1400 24.1300 8.0800
-18.4500 24.1400 7.8100
-18.2300 24.1600 7.7800
-18.2000 24.1300 7.7700
-17.7200 24.1200 8.0200
-17.5200 24.1600 8.0000
-17.5000 24.1300 7.9900
-17.5100 24.1500 7.9900
-17.2900 24.1500 7.9600
-18.4800 24.1900 7.8200
-18.2700 24.2200 7.8000
-18.2400 24.1800 7.7800
-18.2600 24.2100 7.7900
-17.5300 24.1800 8.0000
-17.3200 24.2000 7.9700
-17.3100 24.1900 7.9700
-17.1000 24.2000 7.9400
-18.2800 24.2400 7.8000
-18.0700 24.2700 7.7800
-17.5700 24.2300 8.0200
-17.3400 24.2300 7.9800
-17.1400 24.2600 7.9600
-17.1100 24.2200 7.9500
-18.3300 24.3000 7.8200
-18.1000 24.3000 7.7900
-17.1500 24.2700 7.9600
-18.1200 24.3400 7.8000
-17.9200 24.3700 7.7700
-17.2000 24.3500 7.9900
-18.1700 24.3900 7.8200
-18.1500 24.3800 7.8100
-17.9500 24.4100 7.7900
-17.2300 24.3900 8.0000
-18.2000 24.4400 7.8300
-17.9800 24.4500 7.8000
-17.9600 24.4300 7.7900
-17.7600 24.4600 7.7700
-18.0200 24.5100 7.8200
-18.0000 24.4800 7.8100
-17.7900 24.5100 7.7800
-18.0300 24.5300 7.8200
-17.8300 24.5700 7.8000
-17.8000 24.5200 7.7900
-17.8100 24.5400 7.7900
-17.6000 24.5600 7.7700
-17.8500 24.5900 7.8100
-17.6200 24.5900 7.7800
-17.8800 24.6300 7.8200
-17.6800 24.6700 7.8000
-17.6600 24.6400 7.7900
-17.6900 24.6900 7.8100
-17.4700 24.7000 7.7800
-17.4600 24.6800 7.7700
-17.7200 24.7300 7.8200
-17.5200 24.7600 7.8000
-17.4900 24.7300 7.7800
-17.2700 24.7400 7.7600
-17.7700 24.8000 7.8400
-17.7600 24.7900 7.8400
-17.5400 24.8000 7.8100
-17.5800 24.8600 7.8300
-17.5600 24.8200 7.8100
-17.6200 24.9100 7.8400
-17.3800 24.8900 7.8000
-17.3600 24.8700 7.7900
-20.8600 24.9700 8.0200
-17.6300 24.9200 7.8400
-17.4000 24.9200 7.8100
-20.8900 25.0000 8.0400
-20.6200 24.9800 7.9900
-20.6300 25.0000 7.9900
-17.4600 25.0200 7.8400
-20.9100 25.0200 8.0400
-20.6700 25.0500 8.0100
-20.6600 25.0400 8.0100
-20.3900 25.0200 7.9600
-17.4900 25.0600 7.8500
-20.9700 25.1000 8.0700
-20.7300 25.1200 8.0300
-20.7000 25.0900 8.0200
-20.4600 25.1000 7.9900
-17.5300 25.1100 7.8700
-21.0300 25.1700 8.0900
-20.7300 25.1200 8.0300
-20.7600 25.1500 8.0400
-20.4900 25.1400 8.0000
-20.7800 25.1700 8.0500
-20.5300 25.1900 8.0100
-20.5100 25.1700 8.0100
-20.2900 25.2100 7.9800
-20.2600 25.1800 7.9700
-20.8200 25.2200 8.0700
-20.5800 25.2600 8.0400
-20.3300 25.2700 8.0000
-20.3100 25.2300 7.9900
-20.6000 25.2800 8.0400
-20.3700 25.3100 8.0100
-20.3500 25.2900 8.0100
-20.1200 25.3100 7.9700
-20.3900 25.3300 8.0200
-20.1400 25.3400 7.9800
-20.4200 25.3700 8.0300
-20.1800 25.4000 8.0000
-19.9500 25.4200 7.9700
-20.2200 25.4400 8.0100
-20.2000 25.4200 8.0100
-19.9700 25.4500 7.9800
-19.9500 25.4300 7.9700
-20.2500 25.4700 8.0200
-20.0200 25.5100 8.0000
-20.0000 25.4800 7.9900
-20.0300 25.5200 8.0000
-19.8000 25.5500 7.9700
-19.8300 25.5900 7.9900
-19.8500 25.6200 7.9900
-19.5900 25.6000 7.9500
-19.8700 25.6400 8.0000
-19.8500 25.6200 7.9900
-19.6300 25.6500 7.9700
-19.6100 25.6300 7.9600
-19.6700 25.7100 7.9800
-19.6500 25.6800 7.9800
-19.6800 25.7200 7.9900
-19.7000 25.7500 8.0000
-19.4700 25.7700 7.9700
-19.4500 25.7400 7.9600
-19.5000 25.8100 7.9800
-19.5200 25.8400 7.9900
-19.5400 25.8700 7.9900
-19.5100 25.8300 7.9800
-19.2900 25.8600 7.9600
-18.5500 25.8500 7.8500
-19.3300 25.9100 7.9700
-19.3100 25.8900 7.9700
-19.0800 25.9100 7.9400
-19.3500 25.9400 7.9800
-19.3800 25.9800 7.9900
-19.1400 25.9900 7.9600
-19.1700 26.0300 7.9700
-18.7000 26.0500 7.9100
-21.5100 26.0800 8.0000
-18.9800 26.1100 7.9600
-18.9600 26.0800 7.9500
-21.5700 26.1500 8.0200
-21.5500 26.1200 8.0100
-18.7700 26.1600 7.9400
-18.7500 26.1300 7.9300
-18.5200 26.1400 7.9000
-21.6200 26.2100 8.0400
-21.6300 26.2200 8.0400
-21.6000 26.1800 8.0300
-21.3300 26.1900 7.9900
-19.0300 26.1700 7.9800
-18.8100 26.2100 7.9600
-21.6500 26.2500 8.0500
-21.3800 26.2500 8.0100
-19.0800 26.2400 8.0000
-19.0600 26.2200 8.0000
-18.8200 26.2300 7.9600
-18.5900 26.2500 7.9300
-21.6900 26.3000 8.0700
-21.4100 26.2800 8.0200
-18.8600 26.2800 7.9800
-18.6200 26.2800 7.9400
-18.3700 26.2700 7.9100
-21.7400 26.3600 8.0900
-21.4700 26.3500 8.0400
-21.4500 26.3300 8.0400
-21.4600 26.3500 8.0400
-18.6600 26.3400 7.9600
-22.0300 26.3800 8.1300
-21.7800 26.4000 8.1000
-21.5200 26.4200 8.0600
-21.2400 26.4000 8.0200
-18.4500 26.3800 7.9400
-21.2900 26.4600 8.0400
-21.2600 26.4200 8.0300
-18.4900 26.4400 7.9600
-21.3300 26.5100 8.0500
-21.3000 26.4700 8.0400
-21.3000 26.4800 8.0400
-21.8900 26.5300 8.1400
-21.3600 26.5500 8.0700
-21.0800 26.5400 8.0200
-21.4100 26.6200 8.0800
-21.1300 26.5900 8.0400
-20.8800 26.6200 8.0100
-21.1800 26.6600 8.0600
-20.9000 26.6400 8.0100
-20.9300 26.6800 8.0200
-20.4100 26.6900 7.9500
-20.4100 26.6800 7.9500
-20.7300 26.7600 8.0100
-20.7000 26.7300 8.0000
-20.4700 26.7700 7.9800
-20.4500 26.7400 7.9700
-21.0300 26.8000 8.0600
-20.7500 26.7800 8.0200
-20.5000 26.8000 7.9900
-21.0600 26.8500 8.0800
-20.7800 26.8300 8.0300
-20.8100 26.8600 8.0400
-20.5400 26.8600 8.0000
-20.5800 26.9000 8.0200
-20.3300 26.9100 7.9800
-20.3100 26.8900 7.9700
-20.6000 26.9300 8.0200
-20.3700 26.9700 8.0000
-20.3500 26.9500 7.9900
-20.1000 26.9600 7.9600
-20.3900 27.0000 8.0100
-20.1200 26.9800 7.9700
-20.4100 27.0200 8.0100
-20.1600 27.0300 7.9800
-20.2200 27.1100 8.0000
-20.2000 27.1000 8.0000
-19.9600 27.1100 7.9700
-22.3800 27.1700 8.0300
-20.5000 27.1400 8.0500
-20.2400 27.1500 8.0100
-19.9900 27.1600 7.9800
-19.7100 27.1200 7.9400
-22.4200 27.2100 8.0400
-22.4300 27.2200 8.0400
-22.4000 27.1800 8.0300
-20.0200 27.2000 7.9900
-20.0100 27.1800 7.9900
-19.7700 27.2000 7.9600
-22.4700 27.2700 8.0600
-22.4400 27.2300 8.0500
-22.1500 27.2300 8.0000
-19.7900 27.2400 7.9700
-22.5000 27.3100 8.0700
-22.2200 27.3100 8.0300
-22.2100 27.3000 8.0300
-19.8300 27.3000 7.9900
-19.8500 27.3100 7.9900
-19.5900 27.3100 7.9500
-19.0800 27.3000 7.8800
-22.5200 27.3300 8.0800
-22.2400 27.3300 8.0400
-22.2600 27.3500 8.0400
-19.8500 27.3200 7.9900
-19.6200 27.3600 7.9700
-19.6100 27.3400 7.9600
-19.3500 27.3300 7.9300
-22.2900 27.3900 8.0500
-22.0300 27.4100 8.0200
-19.6300 27.3700 7.9700
-19.4100 27.4100 7.9500
-19.1500 27.4000 7.9100
-22.3200 27.4300 8.0600
-22.0700 27.4700 8.0400
-22.0500 27.4500 8.0300
-19.6700 27.4300 7.9900
-19.6900 27.4500 7.9900
-19.4300 27.4500 7.9600
-22.0700 27.4700 8.0400
-22.0900 27.4900 8.0400
-19.4600 27.4900 7.9700
-22.1300 27.5400 8.0600
-21.8700 27.5600 8.0200
-21.8600 27.5500 8.0200
-19.4900 27.5300 7.9800
-19.2500 27.5400 7.9500
-21.8900 27.5900 8.0300
-19.2800 27.5800 7.9600
-21.9200 27.6300 8.0400
-21.6500 27.6300 8.0100
-19.5700 27.6400 8.0200
-19.3300 27.6600 7.9900
-21.9800 27.7000 8.0600
-21.9600 27.6800 8.0600
-21.7200 27.7200 8.0300
-21.7100 27.7100 8.0300
-21.7300 27.7300 8.0300
-21.7500 27.7600 8.0400
-21.7700 27.7800 8.0500
-21.7600 27.7800 8.0500
-21.5200 27.8200 8.0200
-21.5100 27.8000 8.0200
-21.8100 27.8300 8.0600
-21.5400 27.8400 8.0300
-21.2800 27.8600 8.0000
-21.5700 27.8800 8.0400
-21.5900 27.9100 8.0500
-21.5600 27.8700 8.0400
-21.3200 27.9100 8.0100
-21.3100 27.9000 8.0100
-21.3400 27.9300 8.0200
-21.6400 27.9700 8.0700
-21.3800 27.9900 8.0300
-21.1200 28.0000 8.0000
-21.4200 28.0400 8.0500
-21.4100 28.0300 8.0400
-21.1700 28.0600 8.0200
-21.1600 28.0500 8.0100
-21.4600 28.1000 8.0600
-21.1900 28.1000 8.0300
-21.2300 28.1500 8.0400
-21.2400 28.1600 8.0400
-20.9700 28.1600 8.0100
-20.9600 28.1500 8.0000
-21.2800 28.2200 8.0600
-21.0000 28.2100 8.0200
-21.0300 28.2400 8.0300
-21.0100 28.2200 8.0200
-21.0600 28.2800 8.0400
-20.8200 28.3200 8.0200
-20.8000 28.2900 8.0100
-21.1200 28.3600 8.0600
-20.8400 28.3500 8.0200
-20.8700 28.3900 8.0400
-20.8900 28.4100 8.0400
-20.8600 28.3700 8.0300
-20.6200 28.4200 8.0100
-20.6100 28.4000 8.0000
-20.9200 28.4600 8.0600
-20.6400 28.4400 8.0100
-20.6700 28.4900 8.0300
-20.4200 28.5000 8.0000
-20.4100 28.4800 7.9900
-20.4100 28.4900 7.9900
-20.7200 28.5600 8.0500
-20.7100 28.5300 8.0400
-20.7100 28.5400 8.0400
-20.4500 28.5500 8.0100
-20.2000 28.5700 7.9800
-20.4700 28.5700 8.0200
-20.2300 28.6100 7.9900
-20.5400 28.6700 8.0400
-20.5100 28.6300 8.0300
-20.2700 28.6700 8.0100
-20.2600 28.6400 8.0000
-23.3800 28.7200 8.0600
-20.5600 28.7000 8.0500
-20.2900 28.6900 8.0100
-23.4200 28.7700 8.0800
-23.3900 28.7400 8.0700
-20.3300 28.7400 8.0300
-20.3100 28.7200 8.0200
-20.0500 28.7300 7.9900
-20.0600 28.7300 7.9900
-23.4400 28.8000 8.0800
-20.3700 28.8100 8.0500
-20.3600 28.7900 8.0400
-20.1000 28.8000 8.0100
-23.4700 28.8300 8.0900
-23.2000 28.8700 8.0600
-20.1200 28.8300 8.0200
-23.5300 28.9100 8.1200
-23.5100 28.8900 8.1100
-23.2300 28.9000 8.0700
-23.2100 28.8700 8.0700
-23.5400 28.9200 8.1200
-23.2700 28.9400 8.0900
-23.2500 28.9300 8.0800
-23.3300 29.0200 8.1100
-23.3000 28.9800 8.1000
-23.0300 29.0100 8.0600
-23.3300 29.0200 8.1100
-23.0700 29.0600 8.0800
-23.0500 29.0400 8.0700
-23.3700 29.0700 8.1200
-23.0800 29.0700 8.0800
-23.1300 29.1400 8.1000
-22.8500 29.1500 8.0700
-22.8800 29.1900 8.0800
-22.9200 29.2500 8.0900
-22.9300 29.2500 8.0900
-22.6300 29.2400 8.0500
-22.3400 29.2300 8.0100
-22.9500 29.2700 8.1000
-22.6800 29.3000 8.0700
-22.6600 29.2800 8.0600
-22.3900 29.3000 8.0300
-22.7200 29.3600 8.0800
-22.7100 29.3400 8.0800
-22.4300 29.3500 8.0400
-22.4100 29.3300 8.0400
-22.4800 29.4200 8.0600
-22.4500 29.3800 8.0500
-22.1800 29.4000 8.0200
-22.5000 29.4400 8.0700
-22.2300 29.4600 8.0400
-22.2100 29.4400 8.0300
-22.2700 29.5200 8.0500
-22.2400 29.4800 8.0400
-22.2600 29.5000 8.0500
-21.9900 29.5200 8.0100
-22.2800 29.5300 8.0500
-22.0200 29.5600 8.0300
-22.0100 29.5400 8.0200
-22.3200 29.5800 8.0700
-22.0400 29.5900 8.0300
-22.0600 29.6200 8.0400
-22.0800 29.6400 8.0500
-21.8100 29.6500 8.0100
-21.5400 29.6600 7.9800
-22.1200 29.7000 8.0600
-21.8400 29.6900 8.0300
-21.8800 29.7400 8.0400
-21.8800 29.7600 8.0400
-21.8600 29.7200 8.0300
-21.6100 29.7600 8.0100
-21.9200 29.8000 8.0500
-21.9000 29.7700 8.0500
-21.6700 29.8500 8.0300
-21.6600 29.8300 8.0300
-21.6900 29.8700 8.0400
-21.7000 29.8900 8.0400
-21.4300 29.9000 8.0100
-21.4700 29.9500 8.0200
-21.4500 29.9200 8.0200
-21.4800 29.9700 8.0300
-21.5300 30.0300 8.0500
-24.5000 30.0900 8.0500
-21.2800 30.0800 8.0200
-24.6000 30.2100 8.0900
-24.6300 30.2500 8.1000
-24.6800 30.3100 8.1100
-24.6600 30.2800 8.1100
-24.3600 30.3000 8.0700
-24.7000 30.3400 8.1200
-24.4000 30.3500 8.0800
-24.7600 30.4100 8.1400
-24.4400 30.4000 8.1000
-24.1200 30.3800 8.0500
-24.7700 30.4300 8.1400
-24.4600 30.4200 8.1000
-24.1800 30.4600 8.0700
-24.2200 30.5100 8.0900
-24.2000 30.4800 8.0800
-24.2400 30.5300 8.0900
-24.2600 30.5500 8.1000
-23.9600 30.5700 8.0600
-23.9300 30.5200 8.0500
-24.2900 30.5900 8.1100
-23.9900 30.6100 8.0700
-24.0300 30.6500 8.0800
-24.0100 30.6200 8.0800
-23.7200 30.6500 8.0400
-23.4300 30.6600 8.0100
-24.0800 30.7100 8.1000
-24.0500 30.6700 8.0900
-24.0600 30.6900 8.0900
-23.7600 30.6900 8.0600
-23.7900 30.7400 8.0700
-24.1400 30.7900 8.1200
-23.8400 30.8000 8.0800
-23.5500 30.8000 8.0500
-24.7900 30.8700 7.8300
-23.8700 30.8300 8.0900
-23.5700 30.8400 8.0600
-23.5600 30.8200 8.0500
-23.9200 30.9000 8.1100
-23.9100 30.8900 8.1100
-23.6100 30.8900 8.0700
-23.3200 30.9100 8.0400
-23.6500 30.9400 8.0800
-23.3700 30.9600 8.0500
-23.3600 30.9500 8.0500
-23.7000 31.0100 8.1000
-23.3800 30.9800 8.0600
-23.1000 31.0100 8.0300
-22.8100 31.0000 7.9900
-23.4300 31.0500 8.0700
-23.4100 31.0200 8.0700
-23.1200 31.0400 8.0300
-24.9800 31.0900 7.8800
-23.4800 31.1100 8.0900
-23.1700 31.1000 8.0500
-23.1600 31.0900 8.0500
-25.0200 31.1500 7.9000
-23.2000 31.1300 8.0600
-22.9200 31.1600 8.0300
-22.9100 31.1400 8.0200
-25.0600 31.1900 7.9100
-23.2500 31.2100 8.0800
-22.9400 31.1900 8.0400
-22.9600 31.2200 8.0400
-22.6600 31.2100 8.0100
-25.1000 31.2400 7.9200
-24.7900 31.2500 7.8800
-22.9900 31.2500 8.0500
-25.1300 31.2900 7.9300
-23.0200 31.3000 8.0600
-23.0100 31.2800 8.0600
-22.7300 31.3100 8.0300
-22.4400 31.3100 8.0000
-25.1700 31.3300 7.9400
-24.8700 31.3500 7.9100
-24.8500 31.3300 7.9000
-23.0600 31.3500 8.0800
-22.7500 31.3200 8.0300
-22.4900 31.3700 8.0100
-24.9200 31.4200 7.9300
-24.2700 31.3800 7.8400
-22.5000 31.3800 8.0100
-22.2200 31.4000 7.9900
-24.9500 31.4500 7.9300
-24.6300 31.4400 7.8900
-22.5400 31.4400 8.0300
-22.2400 31.4300 7.9900
-24.6800 31.5100 7.9100
-24.6600 31.4800 7.9000
-22.5600 31.4800 8.0400
-21.9900 31.4900 7.9700
-24.7200 31.5600 7.9200
-24.7000 31.5400 7.9200
-22.3200 31.5500 8.0200
-22.0400 31.5600 7.9900
-24.7300 31.5700 7.9300
-24.4200 31.5800 7.8900
-22.3500 31.5900 8.0300
-24.4900 31.6600 7.9100
-22.1200 31.6700 8.0200
-24.5300 31.7100 7.9200
-24.5100 31.6900 7.9200
-24.2200 31.7200 7.8900
-22.1200 31.6800 8.0200
-24.2500 31.7600 7.9000
-24.2300 31.7300 7.8900
-24.2800 31.8000 7.9100
-24.2600 31.7700 7.9000
-24.6200 31.8300 7.9500
-24.3200 31.8400 7.9200
-24.3100 31.8400 7.9200
-24.0000 31.8300 7.8800
-22.5200 31.8200 8.0900
-24.6700 31.9000 7.9700
-24.3700 31.9100 7.9400
-24.3400 31.8700 7.9300
-24.0900 31.9500 7.9100
-24.1300 32.0000 7.9200
-24.1100 31.9700 7.9100
-24.1800 32.0700 7.9400
-24.1500 32.0300 7.9300
-23.8500 32.0400 7.9000
-23.8800 32.0800 7.9000
-23.5800 32.0900 7.8700
-23.9800 32.2200 7.9400
-23.6900 32.2400 7.9100
-23.7300 32.2900 7.9200
-23.7800 32.3600 7.9400
-23.7600 32.3300 7.9300
-23.4700 32.3500 7.9000
-23.7900 32.3700 7.9400
-23.5200 32.4100 7.9100
-23.5000 32.3900 7.9100
-23.8400 32.4400 7.9600
-23.5500 32.4600 7.9300
-23.5700 32.4900 7.9300
-23.2800 32.5000 7.9000
-23.6000 32.5200 7.9400
-23.3200 32.5700 7.9200
-23.3000 32.5300 7.9100
-23.0200 32.5600 7.8800
-23.3400 32.5900 7.9200
-23.3900 32.6500 7.9400
-23.3600 32.6200 7.9300
-23.0700 32.6400 7.9000
-23.4300 32.7100 7.9500
-23.1300 32.7200 7.9200
-23.1500 32.7400 7.9300
-23.2400 32.8700 7.9600
-22.9600 32.9000 7.9300
-22.9800 32.9400 7.9400
-26.8800 33.4500 8.1200
-26.9400 33.5100 8.1400
-26.9700 33.5500 8.1500
-27.0200 33.6200 8.1600
-27.0100 33.6000 8.1600
-27.0200 33.6200 8.1700
-26.7100 33.6500 8.1300
-27.0800 33.6900 8.1800
-26.7300 33.6800 8.1400
-26.7400 33.6900 8.1400
-26.7700 33.7200 8.1500
-26.8200 33.7900 8.1700
-26.8000 33.7700 8.1600
-26.5000 33.8100 8.1300
-26.8600 33.8400 8.1800
-26.5300 33.8500 8.1400
-26.5400 33.8600 8.1400
-26.5100 33.8200 8.1300
-27.2300 33.8800 8.2300
-26.5700 33.9000 8.1500
-26.5600 33.8800 8.1500
-26.6000 33.9400 8.1600
-26.2700 33.9400 8.1200
-26.6400 33.9900 8.1700
-26.3200 34.0100 8.1400
-26.3200 34.0200 8.1400
-26.3000 33.9800 8.1300
-25.9800 34.0000 8.1000
-26.3500 34.0500 8.1500
-26.0200 34.0500 8.1100
-26.0000 34.0300 8.1100
-26.3800 34.0900 8.1600
-26.0700 34.1200 8.1300
-26.0600 34.1000 8.1200
-26.0800 34.1400 8.1300
-26.1200 34.1900 8.1500
-26.1100 34.1700 8.1400
-25.8000 34.2000 8.1100
-26.1600 34.2300 8.1600
-25.8400 34.2600 8.1200
-26.2000 34.2900 8.1700
-25.8800 34.3100 8.1400
-25.8600 34.2700 8.1300
-25.9200 34.3600 8.1500
-25.9000 34.3200 8.1400
-25.9100 34.3400 8.1400
-25.5700 34.3300 8.1000
-25.6200 34.4000 8.1200
-25.6100 34.3900 8.1200
-25.6600 34.4500 8.1300
-25.3400 34.4600 8.1000
-25.7100 34.5100 8.1500
-25.3800 34.5100 8.1100
-25.3500 34.4800 8.1000
-25.4200 34.5700 8.1200
-25.4000 34.5400 8.1200
-25.4400 34.6000 8.1300
-25.4700 34.6300 8.1400
-25.1400 34.6400 8.1000
-24.8400 34.6600 8.0700
-25.1700 34.6800 8.1100
-24.8800 34.7200 8.0900
-24.9100 34.7600 8.1000
-24.5700 34.7300 8.0500
-24.9300 34.7800 8.1000
-24.9700 34.8400 8.1200
-24.9600 34.8300 8.1100
-24.6500 34.8500 8.0800
-28.0500 34.9100 8.0200
-24.6700 34.8800 8.0900
-24.6900 34.9000 8.0900
-28.0900 34.9600 8.0400
-28.0600 34.9200 8.0300
-25.0500 34.9500 8.1400
-24.7200 34.9500 8.1000
-24.7100 34.9400 8.1000
-28.1400 35.0200 8.0500
-28.1000 34.9700 8.0400
-28.1100 34.9900 8.0400
-24.7700 35.0200 8.1200
-24.7400 34.9800 8.1100
-24.4500 35.0200 8.0800
-28.1800 35.0700 8.0600
-28.1600 35.0500 8.0600
-24.8000 35.0500 8.1300
-24.4900 35.0700 8.1000
-24.4600 35.0400 8.0900
-27.8400 35.0900 8.0300
-24.8300 35.1000 8.1400
-27.8700 35.1300 8.0300
-27.9000 35.1600 8.0400
-24.5300 35.1300 8.1100
-27.9400 35.2100 8.0500
-27.9100 35.1700 8.0400
-27.2400 35.2000 7.9800
-27.9500 35.2300 8.0600
-27.6200 35.2600 8.0300
-27.6000 35.2200 8.0200
-27.6400 35.2700 8.0300
-27.6900 35.3400 8.0400
-24.6800 35.3500 8.1600
-27.7400 35.4000 8.0600
-27.3800 35.4000 8.0200
-27.4300 35.4500 8.0300
-27.4100 35.4200 8.0200
-27.4700 35.5100 8.0400
-27.4500 35.4800 8.0400
-27.1000 35.4800 8.0000
-27.5000 35.5500 8.0500
-27.5200 35.5700 8.0600
-27.1900 35.6000 8.0300
-27.2300 35.6400 8.0400
-27.2400 35.6600 8.0400
-27.2100 35.6200 8.0300
-27.2800 35.7100 8.0500
-27.2600 35.6900 8.0500
-27.3000 35.7400 8.0600
-26.9800 35.7700 8.0300
-26.9600 35.7500 8.0200
-27.0000 35.8000 8.0300
-27.0200 35.8200 8.0400
-27.0300 35.8500 8.0400
-27.0700 35.8900 8.0500
-26.7400 35.9200 8.0200
-26.7700 35.9500 8.0300
-26.7600 35.9400 8.0300
-26.7900 35.9800 8.0400
-26.8300 36.0300 8.0500
-26.5000 36.0500 8.0200
-26.5400 36.1000 8.0300
-26.5700 36.1400 8.0400
-26.5900 36.1600 8.0400
-26.5600 36.1300 8.0300
-26.6200 36.2000 8.0500
-26.6000 36.1900 8.0500
-26.6300 36.2300 8.0600
-26.3200 36.2700 8.0300
-26.3000 36.2400 8.0200
-26.3400 36.2900 8.0300
-26.3800 36.3600 8.0500
-26.3600 36.3300 8.0400
-26.4000 36.3800 8.0500
-26.0900 36.4200 8.0300
-26.1000 36.4300 8.0300
-26.1300 36.4800 8.0400
-26.1600 36.5200 8.0500
-25.8400 36.5400 8.0200
-26.2000 36.5800 8.0600
-25.8800 36.6000 8.0300
-25.8600 36.5700 8.0300
-25.5600 36.6100 8.0000
-26.2500 36.6400 8.0800
-25.9100 36.6400 8.0400
-25.9100 36.6400 8.0400
-25.9400 36.6800 8.0500
-25.6200 36.7100 8.0200
-25.6100 36.6900 8.0200
-25.6500 36.7500 8.0300
-25.6700 36.7700 8.0300
-25.7000 36.8200 8.0400
-25.7100 36.8300 8.0500
-29.9900 37.8100 8.1800
-29.5900 37.7800 8.1300
-30.0000 37.8200 8.1800
-29.6500 37.8500 8.1500
-29.7400 37.9600 8.1700
-29.3600 37.9600 8.1300
-29.7800 38.0200 8.1800
-29.7600 37.9900 8.1800
-29.7900 38.0400 8.1900
-29.8100 38.0600 8.1900
-29.4400 38.0700 8.1500
-29.8200 38.0700 8.1900
-29.4500 38.0800 8.1600
-29.8700 38.1400 8.2100
-29.5000 38.1500 8.1700
-29.5500 38.2100 8.1900
-29.5700 38.2300 8.1900
-29.5900 38.2600 8.2000
-29.2100 38.2600 8.1600
-29.6000 38.2700 8.2000
-28.8900 38.3200 8.1300
-29.2700 38.3300 8.1700
-29.6800 38.3800 8.2200
-28.9900 38.4500 8.1600
-28.6700 38.5100 8.1400
-28.6500 38.4900 8.1300
-29.0600 38.5400 8.1800
-28.7100 38.5600 8.1500
-28.3400 38.5700 8.1100
-28.7200 38.5800 8.1500
-28.7100 38.5700 8.1500
-28.7800 38.6700 8.1700
-28.4100 38.6500 8.1300
-28.4300 38.6900 8.1400
-28.4700 38.7400 8.1500
-28.5200 38.8100 8.1600
-28.5100 38.7900 8.1600
-28.5500 38.8500 8.1700
-28.1700 38.8200 8.1300
-28.5900 38.9000 8.1800
-28.2500 38.9400 8.1500
-28.2800 38.9800 8.1600
-27.9400 39.0100 8.1300
-27.5900 39.0200 8.1000
-28.0100 39.1200 8.1500
-28.0400 39.1500 8.1600
-27.7200 39.2100 8.1400
-27.7300 39.2300 8.1400
-27.7400 39.2400 8.1400
-29.4800 39.6500 7.8900
-29.9300 39.7500 7.9500
-29.5400 39.7300 7.9100
-29.5900 39.8100 7.9300
-29.6300 39.8500 7.9300
-29.6100 39.8300 7.9300
-29.6700 39.9100 7.9500
-29.6600 39.8900 7.9400
-29.6900 39.9400 7.9500
-29.3300 39.9600 7.9200
-29.3100 39.9300 7.9100
-29.3700 40.0100 7.9300
-29.3600 40.0000 7.9300
-29.4000 40.0600 7.9400
-29.4200 40.0900 7.9400
-29.4100 40.0700 7.9400
-29.0600 40.1100 7.9100
-29.4500 40.1200 7.9500
-29.0900 40.1500 7.9200
-31.8400 40.1900 8.1900
-29.1300 40.2000 7.9300
-29.1100 40.1800 7.9300
-29.1700 40.2700 7.9400
-29.1600 40.2500 7.9400
-28.7900 40.2500 7.9100
-31.9200 40.2900 8.2100
-29.2000 40.3000 7.9500
-28.8300 40.3100 7.9200
-28.8100 40.2900 7.9100
-31.9800 40.3700 8.2300
-28.8700 40.3700 7.9300
-28.8500 40.3400 7.9200
-32.0100 40.4000 8.2300
-28.8800 40.3700 7.9300
-28.9300 40.4500 7.9400
-28.9100 40.4200 7.9400
-28.5700 40.4700 7.9100
-28.9700 40.5100 7.9600
-28.9600 40.4900 7.9500
-28.5800 40.4800 7.9200
-31.7300 40.5700 8.2300
-28.6200 40.5400 7.9300
-28.6100 40.5300 7.9300
-31.3600 40.6100 8.2000
-28.6700 40.6000 7.9400
-28.6500 40.5800 7.9400
-31.4000 40.6500 8.2100
-29.0700 40.6400 7.9800
-28.6800 40.6200 7.9500
-28.3200 40.6400 7.9100
-32.2300 40.6800 8.2900
-31.8200 40.6800 8.2500
-28.3700 40.7100 7.9300
-28.3500 40.6800 7.9200
-31.8800 40.7500 8.2700
-31.4800 40.7600 8.2300
-31.5000 40.7800 8.2300
-31.5600 40.8600 8.2500
-28.8400 40.8500 7.9900
-28.4800 40.8700 7.9600
-28.4600 40.8400 7.9500
-31.5900 40.9000 8.2600
-28.5500 40.9700 7.9800
-28.5700 40.9900 7.9800
-33.7300 42.5200 8.2300
-33.7500 42.5500 8.2400
-33.8100 42.6200 8.2500
-33.8400 42.6500 8.2600
-33.8900 42.7200 8.2700
-33.8500 42.6800 8.2600
-33.9200 42.7600 8.2800
-33.9000 42.7400 8.2700
-33.5000 42.7600 8.2400
-33.9400 42.7900 8.2800
-33.5300 42.8100 8.2500
-33.5100 42.7800 8.2400
-33.5800 42.8600 8.2600
-33.5500 42.8300 8.2500
-33.6100 42.9100 8.2700
-33.6100 42.9000 8.2600
-33.6500 42.9600 8.2800
-33.2400 42.9800 8.2400
-33.2800 43.0300 8.2500
-33.3400 43.1100 8.2600
-33.3800 43.1500 8.2700
-32.9800 43.1900 8.2400
-33.0000 43.2100 8.2400
-33.0300 43.2500 8.2500
-33.0900 43.3300 8.2700
-32.7200 43.3900 8.2400
-32.7400 43.4200 8.2500
-32.7700 43.4600 8.2500
-32.7500 43.4300 8.2500
-32.4700 43.6200 8.2400
-32.4400 43.5800 8.2400
-32.4600 43.6000 8.2400
-32.4800 43.6300 8.2500
-32.5200 43.6900 8.2600
-32.5600 43.7300 8.2700
-32.1700 43.7700 8.2400
-32.1500 43.7500 8.2300
-32.1900 43.8000 8.2400
-32.2300 43.8500 8.2500
-32.2100 43.8200 8.2500
-31.8400 43.8800 8.2200
-31.8900 43.9600 8.2400
-31.9300 44.0100 8.2400
-31.9100 43.9900 8.2400
-31.5100 43.9900 8.2100
-31.9400 44.0200 8.2500
-32.0100 44.1200 8.2700
-31.6300 44.1600 8.2400
-31.6500 44.1900 8.2400
-31.2400 44.1900 8.2100
-31.6800 44.2300 8.2500
-31.2900 44.2600 8.2200
-31.7400 44.3100 8.2700
-31.3200 44.3000 8.2300
-31.3500 44.3400 8.2300
-31.4300 44.4600 8.2600
-31.4600 44.5000 8.2600
-31.1300 44.6100 8.2500
-36.1200 46.1200 8.2900
-35.7700 46.2600 8.2800
-35.7900 46.2800 8.2800
-35.8400 46.3500 8.2900
-35.8700 46.3900 8.3000
-35.4400 46.4100 8.2700
-35.9200 46.4500 8.3100
-35.9000 46.4300 8.3100
-35.5100 46.5000 8.2800
-35.5500 46.5600 8.2900
-35.5500 46.5600 8.2900
-35.5700 46.5800 8.3000
-35.1200 46.5800 8.2600
-35.6000 46.6200 8.3000
-35.1800 46.6700 8.2700
-35.6500 46.6900 8.3100
-35.2100 46.7100 8.2800
-35.2300 46.7400 8.2800
-34.7900 46.7400 8.2500
-34.3800 46.7800 8.2200
-35.3700 46.9100 8.3200
-35.3400 46.8700 8.3100
-34.9200 46.9100 8.2800
-34.9000 46.8900 8.2700
-34.9300 46.9300 8.2800
-34.4800 46.9200 8.2400
-34.1000 47.0000 8.2200
-35.0200 47.0500 8.3000
-34.1400 47.0600 8.2300
-34.6200 47.1100 8.2800
-35.0900 47.1500 8.3200
-34.7500 47.2900 8.3100
-33.9700 47.4400 8.2600
-34.0200 47.5100 8.2700
-37.5200 50.4500 8.3000
-37.6900 50.6700 8.3400
-37.6800 50.7400 7.7300
-36.8000 50.7700 8.2800
-36.9000 50.9000 8.3000
-36.9400 50.9600 8.3100
-36.9100 50.9200 8.3000
-36.9800 51.0100 8.3200
-36.9600 50.9900 8.3100
-36.5000 51.0200 8.2800
-36.9900 51.0300 8.3200
-37.0200 51.0800 8.3300
-37.0900 51.1700 8.3400
-36.6000 51.1500 8.3000
-37.1000 51.1900 8.3500
-36.6300 51.1900 8.3100
-36.6700 51.2400 8.3200
-36.6500 51.2200 8.3100
-36.7100 51.3100 8.3300
-36.2300 51.2900 8.2900
-36.7500 51.3600 8.3400
-36.3100 51.4100 8.3100
-42.0500 52.9800 7.7300
-42.2200 53.1900 7.7700
-41.6000 53.2400 8.2600
-42.2400 53.2900 7.1100
-41.6900 53.3500 8.2800
-41.6700 53.3400 3.9700
-41.7200 53.4000 8.2900
-41.7200 53.3900 3.9800
-41.7100 53.3700 8.2800
-41.7100 53.3800 3.9700
-41.1900 53.3900 8.2500
-41.8100 53.4700 6.4600
-41.8400 53.4600 7.1000
-41.7700 53.4600 8.3000
-41.8100 53.4600 6.4600
-41.7500 53.4300 8.2900
-41.7600 53.4400 8.2900
-41.7500 53.4400 3.9800
-41.2500 53.4700 8.2600
-41.8800 53.5000 7.1100
-41.8300 53.4900 6.4600
-41.8600 53.4800 7.1000
-41.7800 53.4700 8.3000
-41.8100 53.5100 3.9800
-41.7800 53.5000 5.8200
-41.7600 53.4800 5.8200
-41.2600 53.4800 8.2600
-41.8700 53.5300 6.4600
-41.8200 53.5300 3.9900
-41.8200 53.5600 5.8200
-41.8600 53.5300 6.4600
-41.8000 53.5300 5.8200
-41.3200 53.5600 8.2700
-41.3000 53.5300 8.2700
-41.8800 53.6000 3.9900
-41.8900 53.6100 3.9900
-41.8400 53.5900 5.8300
-41.3700 53.6100 8.2800
-41.3500 53.6000 8.2800
-41.9200 53.6600 4.0000
-41.9000 53.6200 8.3200
-41.9100 53.6400 3.9900
-41.5300 53.6600 7.7600
-41.5000 53.6700 5.2700
-41.5000 53.6300 7.7500
-41.3900 53.6400 8.2800
-40.8800 53.6700 8.2500
-40.3600 53.6600 8.2100
-41.9600 53.7100 4.0000
-41.5200 53.7000 5.2800
-41.5500 53.6900 7.7600
-41.5100 53.7100 7.1000
-41.4400 53.7100 8.2900
-41.4100 53.6700 8.2900
-40.9000 53.6900 8.2500
-41.5300 53.7400 7.1000
-41.5000 53.7400 6.4600
-41.4300 53.7400 5.8200
-40.9400 53.7400 8.2600
-40.4300 53.7500 8.2200
-41.5300 53.7800 6.4600
-41.4700 53.7900 5.8200
-41.4600 53.7800 5.8200
-40.9700 53.7800 8.2700
-41.5200 53.8500 5.8300
-41.5000 53.8300 5.8300
-40.5000 53.8400 8.2400
-41.5400 53.8800 5.8300
-41.1900 53.9000 7.7600
-41.1600 53.8700 7.7500
-40.5500 53.9200 8.2500
-41.2200 53.9400 7.7600
-41.2000 53.9600 5.2800
-41.1700 53.9600 7.1000
-41.2000 53.9200 7.7600
-40.5700 53.9400 8.2500
-40.5600 53.9200 8.2500
-41.1800 54.0000 6.4600
-41.1900 53.9900 7.1000
-41.1200 54.0200 5.8200
-41.1600 53.9800 6.4600
-40.6300 54.0200 8.2600
-40.6000 53.9800 8.2600
-41.2200 54.0200 7.1100
-41.1900 54.0300 6.4600
-41.1400 54.0400 5.8200
-40.6400 54.0300 8.2700
-40.1300 54.0500 8.2300
-41.1700 54.0900 5.8300
-40.1600 54.0800 8.2400
-40.8700 54.1700 7.7600
-40.8500 54.1500 7.7600
-40.2200 54.1600 8.2500
-40.1900 54.1200 8.2400
-40.8800 54.1900 7.7600
-40.8400 54.2100 7.1000
-40.2300 54.1800 8.2500
-40.8800 54.2400 5.2800
-40.8700 54.2500 7.1000
-40.8400 54.2500 6.4600
-40.8600 54.2300 7.1000
-40.7800 54.2600 5.8200
-40.2800 54.2500 8.2600
-40.2600 54.2200 8.2600
-39.7700 54.2500 8.2300
-40.8600 54.2800 6.4600
-40.8900 54.2700 7.1100
-40.8200 54.3100 5.8200
-40.8600 54.2700 6.4600
-40.8000 54.2800 5.8200
-39.8100 54.3000 8.2300
-40.8400 54.3300 5.8300
-40.4800 54.3400 7.7500
-40.3600 54.3500 8.2800
-39.8400 54.3400 8.2400
-40.8600 54.3700 5.8300
-40.5300 54.4100 7.7600
-40.5100 54.3900 7.7500
-39.8700 54.3900 8.2500
-40.5700 54.4600 7.7700
-40.5200 54.4700 7.1000
-40.5400 54.4300 7.7600
-40.4800 54.4600 6.4500
-40.5100 54.4600 7.1000
-39.9300 54.4700 8.2600
-39.9100 54.4400 8.2500
-39.3900 54.4200 8.2100
-40.5200 54.5200 6.4600
-40.5300 54.4900 7.1000
-40.5000 54.4900 6.4600
-40.4500 54.5100 5.8200
-39.9700 54.5200 8.2700
-39.9600 54.5000 8.2600
-40.5300 54.5300 6.4600
-40.5500 54.5200 7.1100
-40.4800 54.5600 5.8200
-39.9700 54.5300 8.2700
-39.4900 54.5700 8.2400
-40.5000 54.5800 5.8300
-40.1700 54.6200 7.7500
-40.1400 54.5800 7.7500
-39.5200 54.6000 8.2400
-40.5300 54.6200 5.8300
-40.1800 54.6500 7.7600
-40.1100 54.6600 6.4500
-39.5500 54.6400 8.2500
-40.2200 54.7000 7.7600
-40.1800 54.7100 7.1000
-40.2100 54.6700 7.7600
-40.1400 54.7100 6.4500
-39.5900 54.7100 8.2600
-40.2200 54.7700 7.1100
-40.1800 54.7500 6.4600
-40.1900 54.7300 7.1000
-40.1200 54.7600 5.8200
-40.1600 54.7300 6.4600
-40.0900 54.7300 5.8200
-39.6200 54.7400 8.2600
-39.1200 54.7600 8.2300
-40.2300 54.7800 7.1100
-40.2000 54.7900 6.4600
-40.1400 54.7900 5.8200
-39.7900 54.8100 7.7400
-39.6500 54.7800 8.2700
-39.1500 54.8000 8.2400
-39.8300 54.8600 7.7500
-39.8500 54.9000 7.7600
-39.2200 54.9000 8.2500
-40.2400 54.9300 5.8400
-39.8800 54.9400 7.7600
-39.8200 54.9700 6.4600
-39.8400 54.9600 7.1000
-39.7900 54.9400 6.4500
-39.2700 54.9700 8.2600
-39.8700 55.0000 7.1100
-39.8400 55.0000 6.4600
-39.8600 54.9800 7.1000
-39.3000 55.0100 8.2700
-39.8700 55.0400 6.4600
-39.8900 55.0300 7.1100
-39.8600 55.0300 6.4600
-39.4900 55.1100 7.7500
-39.5200 55.1500 7.7600
-39.5100 55.1400 7.7600
-39.4200 55.1300 6.4500
-39.5700 55.2100 7.7700
-39.5500 55.1900 7.7600
-39.4800 55.2200 6.4600
-39.5100 55.2100 7.1000
-38.4100 55.1900 8.2200
-39.5100 55.2600 6.4600
-39.5300 55.2400 7.1000
-39.5000 55.2400 6.4600
-39.5300 55.2900 6.4600
-39.5600 55.2900 7.1100
-39.1700 55.3700 7.7500
-39.1500 55.3500 7.7500
-39.1800 55.3900 7.7600
-39.1100 55.4200 6.4500
-39.2200 55.4500 7.7700
-39.1700 55.4600 7.1000
-39.2100 55.4300 7.7600
-39.1500 55.4200 7.1000
-38.6100 55.4700 8.2600
-39.1700 55.5000 6.4600
-39.1900 55.4800 7.1100
-39.1600 55.4800 6.4600
-39.2300 55.5400 7.1100
-39.2000 55.5500 6.4700
-38.7900 55.5600 7.7500
-38.8300 55.6100 7.7600
-38.8100 55.5900 7.7500
-39.2700 55.6300 6.4800
-38.8700 55.6700 7.7600
-38.8500 55.6400 7.7600
-38.8000 55.6500 7.1000
-38.8800 55.6800 7.7600
-38.8400 55.7000 7.1000
-38.7800 55.6700 6.4500
-38.8700 55.7500 7.1100
-38.8500 55.7700 6.4600
-38.8600 55.7400 7.1100
-38.3700 55.7600 7.0800
-38.8600 55.7900 6.4700
-38.9000 55.7900 7.1100
-38.8600 55.7800 6.4700
-38.4500 55.7900 7.7500
-38.4900 55.8500 7.7600
-38.5300 55.9100 7.7600
-38.4800 55.9100 7.1000
-38.5100 55.8800 7.7600
-38.4600 55.8900 7.1000
-38.5400 55.9300 7.7700
-38.4900 55.9400 7.1000
-38.5400 56.0000 7.1100
-57.8700 56.1400 23.0800
-5.3900 -36.7400 2.9000
-5.3800 -36.7100 2.9000
-5.3600 -36.5700 2.8900
-5.3500 -36.5000 2.8800
-6.5300 -35.3000 3.4300
-6.5300 -35.2400 3.4300
-6.5200 -35.2700 3.7700
-6.5100 -35.2500 3.7700
-6.5200 -35.2200 3.4200
-6.5100 -35.1800 3.4200
-6.5000 -35.2000 3.7600
-6.5100 -35.1600 3.4200
-6.5000 -35.1600 3.7600
-6.5000 -35.1000 3.4100
-6.4800 -35.0900 3.7500
-6.4900 -35.0400 3.4100
-6.4700 -35.0400 3.7400
-2.7000 -34.6100 6.8700
-2.7000 -34.5500 6.8500
-2.6900 -34.4600 6.8400
-2.6900 -34.4100 6.8300
-2.6800 -34.3500 6.8200
-2.4600 -34.3600 7.1500
-2.4500 -34.2900 7.1400
-2.4600 -34.3200 7.1500
-7.2600 -34.2500 1.7400
-2.4700 -34.2500 6.7900
-2.4600 -34.2400 6.7900
-2.4500 -34.2600 7.1300
-7.2500 -34.2000 1.7300
-2.4600 -34.2000 6.7800
-2.4500 -34.2100 7.1200
-7.2400 -34.1700 1.7300
-2.4400 -34.1300 7.1100
-2.2500 -34.1500 6.7700
-2.0400 -34.1300 6.7600
-7.2300 -34.1000 1.7300
-2.4600 -34.1100 6.7600
-2.2400 -34.1100 6.7600
-1.8100 -34.1100 7.0900
-7.2100 -34.0400 1.7300
-2.0300 -34.0400 6.7500
-1.8100 -34.0400 7.0800
-7.2100 -34.0200 1.7200
-2.0300 -34.0200 6.7400
-2.0200 -33.9900 7.4200
-1.8000 -34.0000 7.0700
-7.2000 -33.9700 1.7200
-2.2200 -33.9400 7.0600
-2.0300 -33.9500 6.7300
-2.0100 -33.9800 7.4100
-2.0100 -33.9300 7.0600
-2.0100 -33.9500 7.4100
-1.8200 -33.9800 6.7300
-1.8000 -33.9700 7.0700
-2.2200 -33.9100 7.0600
-2.0200 -33.9000 6.7200
-2.0100 -33.8900 7.0500
-1.8100 -33.9100 6.7200
-1.8000 -33.9100 7.0500
-7.4000 -33.8700 1.7200
-2.0200 -33.8600 6.7100
-2.0000 -33.8400 7.0400
-2.0100 -33.8600 7.0400
-1.8100 -33.8600 6.7100
-1.8000 -33.8700 7.0400
-1.6000 -33.8600 6.7100
-2.0200 -33.8000 6.7000
-2.0000 -33.8200 7.0400
-1.8100 -33.8100 6.7000
-1.7900 -33.8000 7.0300
-1.6000 -33.7900 6.6900
-1.5900 -33.7900 7.3700
-2.0000 -33.7600 7.0200
-1.8100 -33.7600 6.6900
-1.7900 -33.7700 7.0200
-1.5900 -33.7500 7.3600
-2.0000 -33.7100 7.0100
-1.5800 -33.7200 7.3500
-1.5800 -33.6600 7.3400
-1.5800 -33.6100 7.3300
-1.3800 -33.6100 6.6500
-2.4000 -33.4900 6.3600
-1.7800 -33.4800 6.3500
-2.3900 -33.3600 6.3400
-2.3900 -33.3800 6.3400
-2.7900 -33.2600 6.3300
-2.5900 -33.2400 6.3200
-2.3800 -33.2600 6.3200
-2.7900 -33.1900 6.3100
-2.5800 -33.2000 6.3100
-1.7700 -33.2200 5.9700
-2.7900 -33.1700 6.3100
-2.5800 -33.1500 6.3000
-2.5800 -33.1100 6.2900
-1.7700 -33.1000 5.9500
-2.7800 -33.0400 6.2800
-1.7600 -33.0500 5.9400
-1.7600 -33.0700 5.9400
-1.7600 -33.0400 6.2700
-1.7700 -33.0000 5.6100
-1.7600 -32.9800 5.6100
-1.7600 -32.9900 5.9300
-3.1800 -32.9600 6.2800
-1.7600 -32.9600 5.6000
-1.7600 -32.9700 5.9300
-1.5600 -32.9500 5.6000
-1.7600 -32.9100 5.6000
-1.7600 -32.9000 5.9100
-1.5600 -32.9100 5.5900
-1.7600 -32.8600 5.5900
-1.5600 -32.8600 5.5800
-1.7500 -32.7800 5.5700
-1.7500 -32.7500 5.5700
-3.3600 -32.7200 6.2400
-1.7500 -32.7100 5.5600
-1.9500 -32.6200 5.5500
-1.3600 -32.4900 5.2100
-3.7300 -32.4700 6.2000
-3.5300 -32.4400 6.1800
-3.9300 -32.3800 6.1800
-3.7300 -32.4000 6.1800
-3.5300 -32.4000 6.1800
-1.5600 -32.4000 5.1900
-3.9200 -32.3500 6.1800
-3.7200 -32.3400 6.1700
-2.5200 -32.3700 6.1500
-3.9200 -32.3100 6.1700
-3.9100 -32.2900 6.1700
-3.7200 -32.3200 6.1700
-3.7100 -32.2900 6.1600
-1.3500 -32.3300 5.1800
-6.5600 -32.2500 2.5800
-3.9100 -32.2600 6.1600
-3.7100 -32.2400 5.8200
-3.7100 -32.2400 6.1500
-1.9200 -32.2500 5.4900
-1.5500 -32.2700 5.1700
-1.3500 -32.2500 5.1700
-3.9000 -32.1900 6.1500
-3.7100 -32.2300 6.1500
-1.5500 -32.2100 5.1600
-1.3500 -32.1900 5.1600
-3.9000 -32.1500 5.8100
-3.9000 -32.1500 6.1400
-3.9000 -32.1700 6.1400
-1.5400 -32.1600 5.1600
-1.3500 -32.1500 5.1500
-6.5400 -32.1100 2.5600
-3.9000 -32.0900 5.8000
-3.7000 -32.1200 5.8000
-1.7400 -32.1100 5.1500
-1.5700 -32.1100 2.7700
-3.8900 -32.0500 5.7900
-1.3400 -32.0300 5.1300
-1.5700 -32.0200 2.7700
-1.5600 -31.9900 2.7600
-1.3100 -31.9000 4.8600
-4.6700 -31.8600 2.5200
-1.5600 -31.8400 2.7500
-1.5500 -31.7500 2.7400
-1.7200 -31.6900 5.0800
-1.5500 -31.7300 2.7400
-1.5000 -31.6800 4.8200
-4.6400 -31.6800 2.5100
-1.7200 -31.6800 5.0800
-1.7100 -31.6400 5.0800
-1.5500 -31.6600 2.7400
-8.3100 -31.5900 1.9400
-4.6400 -31.6200 2.5000
-1.7100 -31.5900 5.0700
-1.5000 -31.6100 4.8100
-6.4300 -31.5400 2.2100
-4.6300 -31.5600 2.5000
-1.5100 -31.5800 4.1900
-4.0200 -31.5100 5.7000
-2.8500 -31.5000 5.3700
-2.4600 -31.5000 5.6700
-1.4900 -31.4900 4.4800
-1.3400 -31.5100 3.8700
-6.4100 -31.4500 2.2000
-2.4500 -31.4500 5.6600
-1.3300 -31.4700 3.8700
-8.2600 -31.4100 1.9200
-2.8400 -31.4000 5.3500
-2.4500 -31.4000 5.6500
-1.7000 -31.4100 3.0100
-1.4900 -31.4000 4.4600
-8.2400 -31.3400 1.9200
-3.0300 -31.3600 5.3500
-2.8400 -31.3400 5.3400
-2.4500 -31.3600 5.6500
-2.2500 -31.3700 5.6500
-1.4900 -31.3700 4.4600
-8.2400 -31.3300 1.9200
-6.9900 -31.3000 2.2000
-3.0300 -31.3300 5.3400
-2.8300 -31.2900 5.3300
-2.8400 -31.3300 5.3400
-2.4400 -31.3200 5.6400
-2.2500 -31.3100 5.6400
-2.0500 -31.2800 5.6300
-1.4800 -31.3100 4.7700
-8.2200 -31.2700 1.9200
-8.2100 -31.2400 1.9100
-6.9800 -31.2700 2.2000
-4.4000 -31.2300 2.1700
-2.8300 -31.2600 5.3300
-2.6300 -31.2500 5.3300
-2.4400 -31.2500 5.6300
-2.2400 -31.2400 5.6200
-2.0500 -31.2700 5.6200
-9.4700 -31.1800 1.6200
-8.2100 -31.2100 1.9100
-6.9700 -31.2200 2.2000
-6.9600 -31.1900 2.2000
-4.3900 -31.2000 2.1600
-2.8200 -31.2000 5.3200
-2.6300 -31.2200 5.3200
-2.4400 -31.2200 5.6200
-2.2400 -31.1900 5.6100
-2.0600 -31.2300 4.4500
-2.0500 -31.2000 5.6100
-1.6700 -31.2000 4.7500
-1.4900 -31.1800 4.1400
-9.4600 -31.1400 1.6200
-8.1900 -31.1400 1.9100
-7.1600 -31.1400 3.0600
-6.9600 -31.1700 2.1900
-4.3900 -31.1700 2.1600
-2.8200 -31.1500 5.3100
-2.6300 -31.1600 5.3100
-2.4500 -31.1400 4.1400
-2.4500 -31.1600 4.1400
-2.2400 -31.1500 5.3000
-2.2400 -31.1500 5.6100
-2.0500 -31.1300 4.4300
-2.0500 -31.1500 5.3000
-1.6700 -31.1600 4.7500
-1.4900 -31.1400 4.1300
-9.4400 -31.1000 1.6100
-6.9400 -31.0900 2.1900
-6.9500 -31.1300 2.1900
-4.3700 -31.0900 2.1600
-2.8200 -31.1100 5.3100
-2.6200 -31.1300 5.3000
-2.4500 -31.1300 4.1400
-2.2300 -31.1100 5.6000
-2.0500 -31.1100 4.4300
-2.0500 -31.0800 5.2900
-2.0500 -31.1200 5.3000
-1.6600 -31.1100 4.7400
-1.4800 -31.0900 4.1300
-9.6100 -31.0500 1.9300
-9.4300 -31.0600 1.6100
-8.1700 -31.0700 1.9000
-7.3500 -31.0800 3.0600
-6.9300 -31.0400 2.1900
-4.3700 -31.0600 2.1600
-2.8100 -31.0500 5.2900
-2.6200 -31.0400 5.2900
-2.6200 -31.0700 5.3000
-2.4400 -31.0600 4.1300
-2.4300 -31.0400 5.2900
-2.2300 -31.0500 5.2900
-2.0500 -31.0500 4.4200
-2.0400 -31.0500 5.2800
-1.8600 -31.0700 4.4200
-1.6700 -31.0400 4.1200
-1.6600 -31.0600 4.7300
-1.4700 -31.0600 4.4200
-9.5900 -31.0000 1.9200
-9.4200 -31.0300 1.6100
-7.1300 -31.0200 3.0500
-4.3600 -31.0000 2.1500
-2.8100 -31.0100 5.2900
-2.6200 -31.0100 5.2900
-2.6100 -30.9900 5.2800
-2.4400 -31.0000 4.1200
-2.4200 -30.9800 5.2800
-2.2300 -31.0100 5.2800
-2.0400 -31.0200 4.4200
-2.0400 -31.0100 5.2800
-1.8500 -31.0200 4.4200
-1.6600 -31.0100 4.7200
-1.4800 -31.0000 4.1100
-1.4700 -31.0100 4.4100
-9.7900 -30.9500 1.9200
-9.5800 -30.9600 1.9200
-9.4000 -30.9500 1.6100
-7.3200 -30.9600 3.0400
-7.1200 -30.9400 3.0400
-7.1100 -30.9400 3.0400
-4.3600 -30.9500 2.1500
-2.6300 -30.9500 4.9700
-2.6100 -30.9600 5.2800
-2.4300 -30.9800 4.1200
-2.4200 -30.9400 5.2700
-2.2300 -30.9500 5.2700
-2.0400 -30.9600 4.4100
-2.0400 -30.9600 5.2700
-1.8600 -30.9400 4.1100
-1.8500 -30.9800 4.4100
-1.6700 -30.9700 4.1100
-1.6600 -30.9500 4.4000
-1.6500 -30.9500 4.7100
-1.4800 -30.9600 3.2600
-9.7800 -30.9200 1.9200
-9.5600 -30.9000 1.9200
-7.3000 -30.8900 3.0400
-7.3100 -30.9200 3.0400
-7.1100 -30.9100 3.0400
-4.3500 -30.8800 2.1400
-2.8200 -30.9000 4.9700
-2.6300 -30.9000 4.9700
-2.4300 -30.9100 4.1100
-2.4300 -30.8900 4.9600
-2.4200 -30.9200 5.2700
-2.4100 -30.8900 5.2600
-2.2200 -30.9000 4.7100
-2.2200 -30.9100 5.2600
-2.0400 -30.9000 4.4000
-1.8800 -30.8900 3.8000
-1.8600 -30.9000 4.1000
-1.8500 -30.9200 4.4000
-1.6700 -30.9100 4.1000
-1.6500 -30.8900 4.4000
-1.4700 -30.8900 3.2500
-9.7600 -30.8600 1.9200
-7.2900 -30.8500 3.0300
-7.0900 -30.8400 3.0300
-4.3400 -30.8400 2.1400
-4.3400 -30.8500 2.1400
-2.9900 -30.8600 4.4000
-2.8100 -30.8500 4.9600
-2.6200 -30.8500 4.9600
-2.4200 -30.8500 4.1000
-2.4300 -30.8600 4.9600
-2.2100 -30.8300 3.5500
-1.8500 -30.8600 4.1000
-1.8400 -30.8400 4.3900
-1.8400 -30.8600 4.3900
-1.6600 -30.8800 4.1000
-1.6600 -30.8500 4.1000
-9.7400 -30.8000 1.9100
-7.2800 -30.8000 3.0300
-7.0800 -30.8000 3.0300
-4.3300 -30.8000 2.1400
-2.9800 -30.7900 4.3900
-2.8100 -30.7900 4.9500
-2.6200 -30.8000 4.9500
-2.4300 -30.8200 4.9500
-1.8800 -30.8200 3.7900
-1.8500 -30.8000 4.0900
-1.8500 -30.8100 4.0900
-1.6600 -30.8000 3.2500
-1.6600 -30.7900 4.0900
-1.6600 -30.8100 4.0900
-9.7200 -30.7400 1.9100
-7.2700 -30.7700 3.0300
-7.0700 -30.7400 3.0200
-4.3300 -30.7400 2.1300
-3.9500 -30.7400 4.9600
-2.6200 -30.7700 4.9500
-2.6100 -30.7400 4.9400
-1.8500 -30.7400 4.0800
-1.6600 -30.7500 3.2400
-7.8800 -30.7200 1.8800
-7.2600 -30.7000 3.0200
-7.0700 -30.7300 3.0200
-5.4600 -30.7200 6.4800
-2.6100 -30.7100 4.9400
-2.2000 -30.6900 3.5400
-7.0500 -30.6400 3.0100
-5.4500 -30.6400 6.1600
-5.4400 -30.6600 6.4700
-4.1000 -30.6400 5.5500
-3.9200 -30.6600 5.2500
-3.9100 -30.6400 5.2500
-2.2000 -30.6500 3.5300
-1.8400 -30.6800 4.0700
-7.8500 -30.6200 1.8700
-7.2400 -30.6100 3.0100
-7.0400 -30.6100 3.0100
-5.4400 -30.5800 6.1500
-5.4300 -30.6000 6.4600
-3.9100 -30.5800 5.2400
-2.0300 -30.6100 4.0700
-7.8300 -30.5500 1.8700
-5.4400 -30.5700 6.1400
-5.4300 -30.5800 6.4500
-4.0900 -30.5600 5.5400
-3.9300 -30.5700 4.9400
-3.9000 -30.5500 5.2300
-3.5200 -30.5400 4.6800
-2.0200 -30.5600 4.0600
-1.6400 -30.5500 2.4000
-1.6600 -30.5400 2.9300
-7.8200 -30.4900 1.8700
-5.4300 -30.5000 6.1300
-5.4200 -30.5100 6.4400
-5.4200 -30.5300 6.4400
-5.4100 -30.4900 6.4300
-4.0900 -30.5200 5.5300
-3.9400 -30.5300 1.8300
-3.9200 -30.5200 4.9300
-3.8900 -30.4800 5.2200
-2.7600 -30.5100 4.6600
-2.2100 -30.5100 4.0600
-2.0200 -30.5200 3.2200
-2.0200 -30.5100 4.0500
-1.8300 -30.4800 3.2100
-1.6300 -30.5000 2.3900
-1.4700 -30.4900 2.9200
-9.4500 -30.4500 1.5800
-7.8100 -30.4500 1.8600
-5.4200 -30.4600 6.1200
-5.4100 -30.4700 6.4300
-4.0800 -30.4600 5.5200
-3.9100 -30.4400 4.9200
-3.8900 -30.4800 5.2200
-2.2000 -30.4500 4.0500
-2.0200 -30.4600 3.2100
-2.0200 -30.4800 4.0500
-2.0100 -30.4300 3.2100
-1.8400 -30.4500 2.9200
-1.8300 -30.4600 3.2100
-1.6300 -30.4500 2.3900
-1.6500 -30.4400 2.9200
-9.4400 -30.4000 1.5800
-7.8000 -30.4000 1.8600
-5.4200 -30.4300 6.1200
-5.4100 -30.4100 6.1100
-4.0700 -30.4200 5.5100
-3.9100 -30.4200 4.9100
-3.5100 -30.4200 4.6600
-2.7500 -30.3800 4.6400
-2.7500 -30.4100 4.6400
-2.2000 -30.4300 4.0400
-2.0100 -30.3900 3.2100
-2.0100 -30.4100 4.0400
-1.8400 -30.4100 2.9200
-1.6500 -30.4200 2.9200
-1.4400 -30.4100 2.3900
-1.4600 -30.4000 2.9100
-9.4200 -30.3700 1.5800
-5.4100 -30.3700 6.1100
-5.3900 -30.3600 6.4100
-5.2300 -30.3700 2.1200
-3.8800 -30.3500 5.2000
-3.5000 -30.3600 4.6500
-2.2000 -30.3400 4.0300
-2.0100 -30.3600 3.2000
-2.0100 -30.3800 4.0400
-1.6500 -30.3400 2.9100
-1.4600 -30.3600 2.9100
