1.540 -0.930 0.260
1.510 -0.930 0.260
1.540 -0.960 0.270
1.520 -0.960 0.260
1.500 -0.960 0.260
1.490 -0.970 0.260
1.470 -0.970 0.260
1.470 -0.980 0.260
1.450 -0.980 0.260
1.450 -0.990 0.260
1.430 -0.990 0.260
1.420 -1.000 0.260
1.400 -1.000 0.250
1.390 -1.000 0.250
1.400 -1.020 0.260
1.390 -1.020 0.250
1.370 -1.020 0.250
1.390 -1.050 0.260
1.360 -1.050 0.250
1.340 -1.050 0.250
1.350 -1.060 0.250
1.330 -1.060 0.250
1.320 -1.070 0.250
1.320 -1.080 0.250
0.990 -0.820 0.190
0.990 -0.830 0.190
0.970 -0.820 0.190
0.990 -0.850 0.190
1.000 -0.870 0.200
1.000 -0.880 0.200
1.020 -0.910 0.200
1.030 -0.930 0.200
1.060 -0.970 0.210
1.080 -1.000 0.220
1.080 -1.010 0.220
1.090 -1.040 0.220
1.110 -1.070 0.230
1.130 -1.100 0.230
1.140 -1.120 0.240
1.170 -1.170 0.240
1.170 -1.180 0.250
1.150 -1.170 0.240
1.150 -1.190 0.240
1.140 -1.190 0.240
1.140 -1.210 0.250
1.130 -1.210 0.240
1.130 -1.220 0.240
1.110 -1.220 0.240
1.110 -1.240 0.250
1.090 -1.230 0.240
1.070 -1.220 0.240
1.080 -1.240 0.240
1.070 -1.250 0.240
1.060 -1.260 0.240
1.040 -1.250 0.240
1.040 -1.260 0.240
1.030 -1.260 0.240
1.030 -1.280 0.240
0.990 -1.250 0.230
1.000 -1.280 0.240
1.000 -1.300 0.240
0.990 -1.300 0.240
0.990 -1.310 0.240
0.970 -1.300 0.240
0.950 -1.290 0.240
0.950 -1.320 0.240
0.940 -1.310 0.240
0.920 -1.300 0.230
0.930 -1.330 0.240
0.910 -1.320 0.240
0.900 -1.320 0.230
0.900 -1.340 0.240
0.890 -1.350 0.240
0.900 -1.380 0.240
0.870 -1.350 0.240
0.870 -1.370 0.240
0.860 -1.370 0.240
0.840 -1.370 0.240
0.850 -1.390 0.240
0.830 -1.370 0.240
0.810 -1.360 0.230
0.820 -1.410 0.240
0.810 -1.400 0.240
0.800 -1.410 0.240
0.790 -1.410 0.240
0.790 -1.430 0.240
0.770 -1.410 0.240
0.760 -1.420 0.240
0.740 -1.410 0.230
0.740 -1.420 0.230
0.730 -1.430 0.240
0.730 -1.440 0.240
0.710 -1.430 0.230
0.530 -1.090 0.180
0.530 -1.090 0.180
0.530 -1.110 0.180
0.530 -1.130 0.180
0.510 -1.120 0.180
0.670 -1.480 0.240
0.660 -1.490 0.240
0.650 -1.490 0.240
0.640 -1.500 0.240
0.630 -1.500 0.240
0.620 -1.500 0.240
0.610 -1.500 0.240
0.610 -1.520 0.240
0.610 -1.540 0.240
0.580 -1.500 0.240
0.580 -1.530 0.240
0.570 -1.540 0.240
0.560 -1.550 0.240
0.550 -1.550 0.240
0.540 -1.550 0.240
0.530 -1.550 0.240
0.520 -1.530 0.240
0.510 -1.550 0.240
0.510 -1.560 0.240
0.500 -1.570 0.240
0.490 -1.590 0.240
0.480 -1.580 0.240
0.470 -1.580 0.240
0.470 -1.620 0.250
0.460 -1.610 0.250
0.450 -1.610 0.250
0.440 -1.620 0.250
0.430 -1.620 0.250
0.420 -1.620 0.250
0.410 -1.630 0.250
0.400 -1.650 0.250
0.390 -1.640 0.250
0.380 -1.620 0.250
0.370 -1.640 0.250
0.360 -1.640 0.250
0.350 -1.660 0.250
0.340 -1.650 0.250
0.340 -1.680 0.250
0.320 -1.670 0.250
0.320 -1.690 0.250
0.310 -1.710 0.260
0.290 -1.690 0.250
0.280 -1.700 0.250
0.270 -1.700 0.250
0.270 -1.710 0.250
0.250 -1.710 0.250
0.240 -1.720 0.250
0.240 -1.740 0.260
0.230 -1.740 0.260
0.210 -1.730 0.260
0.200 -1.740 0.260
0.190 -1.740 0.260
0.180 -1.760 0.260
0.170 -1.760 0.260
0.160 -1.770 0.260
0.160 -1.800 0.270
0.140 -1.780 0.260
0.130 -1.780 0.260
0.120 -1.800 0.270
0.110 -1.800 0.260
0.100 -1.790 0.260
0.090 -1.820 0.270
0.080 -1.820 0.270
0.070 -1.820 0.270
0.060 -1.830 0.270
0.050 -1.850 0.270
0.030 -1.850 0.270
0.020 -1.840 0.270
0.010 -1.850 0.270
0.000 -1.880 0.280
0.000 1.890 0.220
0.010 1.860 0.210
0.020 1.850 0.210
0.030 1.860 0.210
0.040 1.800 0.210
0.060 1.800 0.210
0.070 1.760 0.200
0.080 1.780 0.200
0.090 1.730 0.200
0.090 1.710 0.190
0.100 1.700 0.190
0.110 1.690 0.190
0.120 1.670 0.190
0.130 1.660 0.190
0.140 1.680 0.190
0.160 1.680 0.190
0.170 1.680 0.190
0.180 1.700 0.200
0.190 1.700 0.200
0.200 1.720 0.200
0.210 1.710 0.200
0.220 1.710 0.200
0.240 1.730 0.200
0.250 1.740 0.200
0.260 1.730 0.200
0.270 1.760 0.200
0.280 1.750 0.200
0.290 1.760 0.200
0.310 1.770 0.210
0.320 1.770 0.200
0.330 1.780 0.210
0.350 1.800 0.210
0.360 1.780 0.210
0.370 1.810 0.210
0.380 1.800 0.210
2.390 4.330 0.560
2.410 4.300 0.560
2.440 4.300 0.560
2.450 4.250 0.560
2.470 4.230 0.560
2.490 4.210 0.560
2.510 4.170 0.560
2.510 4.120 0.550
2.530 4.100 0.550
2.550 4.080 0.550
2.580 4.060 0.550
2.590 4.030 0.550
2.600 3.990 0.540
2.630 3.980 0.540
2.630 3.930 0.540
2.640 3.890 0.540
2.670 3.880 0.540
2.690 3.850 0.540
2.700 3.820 0.530
2.730 3.820 0.540
2.730 3.760 0.530
2.750 3.740 0.530
2.760 3.720 0.530
2.790 3.710 0.530
2.840 3.720 0.530
2.810 3.640 0.520
2.830 3.620 0.520
2.840 3.590 0.520
2.850 3.550 0.520
2.880 3.550 0.520
2.890 3.510 0.520
2.930 3.510 0.520
2.920 3.460 0.520
2.930 3.430 0.510
2.940 3.400 0.510
2.950 3.360 0.510
2.980 3.360 0.510
2.990 3.330 0.510
2.990 3.290 0.510
3.010 3.270 0.510
3.050 3.280 0.510
3.040 3.220 0.510
3.070 3.220 0.510
3.090 3.200 0.510
3.090 3.160 0.500
3.090 3.120 0.500
3.110 3.100 0.500
3.120 3.070 0.500
3.130 3.040 0.500
3.160 3.040 0.500
3.170 3.010 0.500
3.170 2.970 0.500
3.200 2.960 0.500
3.200 2.930 0.500
2.090 1.890 0.320
2.090 1.870 0.320
2.120 1.870 0.320
2.140 1.860 0.320
2.230 1.920 0.340
2.340 1.980 0.350
2.470 2.070 0.370
2.760 2.280 0.410
2.870 2.350 0.420
1.910 1.540 0.280
1.900 1.520 0.280
1.910 1.500 0.280
1.940 1.510 0.280
1.930 1.480 0.280
1.960 1.480 0.280
1.960 1.460 0.280
3.450 2.550 0.490
3.450 2.520 0.490
3.140 2.260 0.440
3.180 2.260 0.440
3.230 2.270 0.450
3.240 2.240 0.450
3.230 2.200 0.450
3.250 2.190 0.450
3.240 2.160 0.440
3.220 2.110 0.440
3.310 2.140 0.450
3.310 2.120 0.450
3.310 2.090 0.450
3.320 2.070 0.450
3.340 2.050 0.450
3.330 2.020 0.440
3.420 2.040 0.450
3.400 2.000 0.450
3.400 1.970 0.450
3.420 1.960 0.450
3.390 1.910 0.440
3.400 1.890 0.440
3.400 1.860 0.440
3.480 1.880 0.450
3.480 1.850 0.450
3.480 1.820 0.450
3.490 1.800 0.450
3.500 1.780 0.450
3.500 1.750 0.450
3.450 1.700 0.440
3.470 1.680 0.440
3.580 1.710 0.450
3.580 1.690 0.450
3.560 1.650 0.450
3.570 1.630 0.450
3.570 1.600 0.450
3.580 1.580 0.450
3.570 1.540 0.440
3.570 1.520 0.440
3.590 1.500 0.440
3.700 1.520 0.460
3.690 1.490 0.450
3.670 1.460 0.450
3.660 1.430 0.450
4.020 1.540 0.490
4.040 1.520 0.490
4.050 1.500 0.490
4.080 1.480 0.490
4.070 1.440 0.490
4.070 1.420 0.490
3.680 1.260 0.440
2.440 0.810 0.290
2.380 0.780 0.290
2.350 0.750 0.280
2.360 0.740 0.280
2.380 0.730 0.280
2.390 0.720 0.280
2.400 0.710 0.290
2.400 0.690 0.290
3.030 0.850 0.360
2.960 0.810 0.350
2.920 0.780 0.340
2.850 0.740 0.340
2.800 0.710 0.330
2.710 0.670 0.320
2.720 0.660 0.320
2.720 0.640 0.320
2.750 0.630 0.320
4.350 0.960 0.510
4.360 0.940 0.510
4.380 0.920 0.510
4.400 0.890 0.510
4.410 0.870 0.510
4.430 0.840 0.510
4.450 0.820 0.520
4.450 0.790 0.520
4.460 0.760 0.520
4.480 0.740 0.520
4.460 0.700 0.510
4.380 0.660 0.510
4.320 0.630 0.500
4.260 0.590 0.490
4.230 0.560 0.490
4.140 0.520 0.480
4.080 0.490 0.470
4.020 0.460 0.460
3.970 0.430 0.460
3.940 0.400 0.450
3.870 0.370 0.440
3.830 0.340 0.440
3.780 0.310 0.430
3.750 0.290 0.430
3.680 0.260 0.420
3.640 0.240 0.420
3.600 0.210 0.410
3.550 0.190 0.410
3.530 0.160 0.400
3.480 0.140 0.400
3.430 0.120 0.390
3.390 0.090 0.390
3.370 0.070 0.380
3.320 0.050 0.380
3.280 0.030 0.370
3.250 0.010 0.370
3.220 -0.010 0.370
3.180 -0.030 0.360
3.160 -0.050 0.360
3.150 -0.070 0.360
3.080 -0.090 0.350
3.070 -0.100 0.350
3.020 -0.120 0.340
3.020 -0.140 0.340
2.960 -0.150 0.340
2.920 -0.170 0.330
2.910 -0.190 0.330
2.890 -0.200 0.330
2.850 -0.220 0.330
2.820 -0.230 0.320
2.800 -0.250 0.320
2.780 -0.270 0.320
2.750 -0.280 0.320
2.740 -0.300 0.310
2.710 -0.310 0.310
2.690 -0.320 0.310
2.650 -0.340 0.300
2.630 -0.350 0.300
2.620 -0.360 0.300
2.600 -0.380 0.300
2.560 -0.390 0.300
2.560 -0.400 0.300
2.520 -0.410 0.290
2.500 -0.430 0.290
2.490 -0.440 0.290
1.820 -0.330 0.210
1.820 -0.350 0.210
1.840 -0.360 0.210
1.830 -0.370 0.210
1.850 -0.390 0.220
1.840 -0.400 0.210
1.850 -0.410 0.220
1.870 -0.430 0.220
1.890 -0.440 0.220
1.880 -0.450 0.220
1.920 -0.480 0.230
1.910 -0.490 0.220
1.910 -0.500 0.230
1.910 -0.510 0.230
1.920 -0.530 0.230
1.940 -0.540 0.230
1.940 -0.560 0.230
1.960 -0.570 0.230
1.980 -0.590 0.240
1.970 -0.610 0.240
1.980 -0.620 0.240
2.000 -0.640 0.240
2.020 -0.660 0.240
1.990 -0.670 0.240
1.990 -0.680 0.240
1.970 -0.690 0.240
1.950 -0.690 0.240
1.960 -0.710 0.240
1.920 -0.710 0.230
1.910 -0.720 0.230
1.900 -0.730 0.230
1.870 -0.730 0.230
1.870 -0.740 0.230
1.860 -0.750 0.230
1.840 -0.760 0.230
1.860 -0.780 0.230
1.800 -0.770 0.220
1.810 -0.780 0.220
1.790 -0.790 0.220
1.780 -0.800 0.220
1.770 -0.810 0.220
1.760 -0.810 0.220
1.730 -0.810 0.220
1.720 -0.820 0.220
1.730 -0.840 0.220
1.720 -0.850 0.220
1.700 -0.850 0.220
1.660 -0.840 0.210
1.680 -0.870 0.220
1.660 -0.870 0.210
1.640 -0.870 0.210
1.630 -0.880 0.210
1.640 -0.900 0.210
1.600 -0.890 0.210
1.590 -0.890 0.210
1.590 -0.910 0.210
1.570 -0.910 0.210
1.570 -0.930 0.210
1.560 -0.930 0.210
1.550 -0.940 0.210
1.520 -0.930 0.200
1.510 -0.940 0.200
1.510 -0.950 0.200
1.510 -0.960 0.200
1.500 -0.970 0.200
1.470 -0.970 0.200
1.470 -0.980 0.200
1.450 -0.980 0.200
1.430 -0.970 0.200
1.440 -1.000 0.200
1.420 -1.000 0.200
1.410 -1.000 0.200
1.420 -1.020 0.200
1.390 -1.010 0.200
1.380 -1.020 0.200
1.370 -1.030 0.200
1.380 -1.040 0.200
1.410 -1.080 0.200
1.350 -1.050 0.200
1.340 -1.060 0.200
1.330 -1.060 0.190
1.300 -1.050 0.190
1.320 -1.080 0.190
0.990 -0.820 0.150
1.000 -0.840 0.150
0.970 -0.830 0.150
0.980 -0.850 0.150
1.000 -0.870 0.150
0.980 -0.860 0.150
1.020 -0.910 0.160
1.030 -0.930 0.160
1.040 -0.950 0.160
1.060 -0.980 0.160
1.090 -1.020 0.170
1.080 -1.020 0.170
1.120 -1.070 0.180
1.140 -1.110 0.180
1.140 -1.120 0.180
1.150 -1.140 0.190
1.170 -1.180 0.190
1.160 -1.180 0.190
1.140 -1.180 0.190
1.150 -1.210 0.190
1.140 -1.210 0.190
1.110 -1.190 0.190
1.120 -1.220 0.190
1.100 -1.210 0.190
1.110 -1.230 0.190
1.090 -1.220 0.190
1.090 -1.250 0.190
1.080 -1.240 0.190
1.060 -1.240 0.190
1.050 -1.240 0.190
1.050 -1.270 0.190
1.050 -1.270 0.190
1.020 -1.250 0.180
1.020 -1.270 0.190
1.000 -1.270 0.180
0.990 -1.270 0.180
1.000 -1.300 0.190
0.980 -1.280 0.180
0.980 -1.310 0.190
0.970 -1.300 0.190
0.970 -1.320 0.190
0.950 -1.310 0.180
0.930 -1.290 0.180
0.940 -1.330 0.190
0.920 -1.320 0.180
0.920 -1.330 0.180
0.900 -1.330 0.180
0.910 -1.350 0.190
0.890 -1.350 0.180
0.870 -1.330 0.180
0.860 -1.340 0.180
0.860 -1.360 0.180
0.850 -1.360 0.180
0.850 -1.380 0.180
0.850 -1.400 0.190
0.840 -1.400 0.190
0.830 -1.410 0.190
0.810 -1.390 0.180
0.800 -1.390 0.180
0.810 -1.430 0.190
0.780 -1.390 0.180
0.780 -1.410 0.180
0.770 -1.420 0.180
0.760 -1.420 0.180
0.750 -1.420 0.180
0.740 -1.420 0.180
0.740 -1.440 0.180
0.730 -1.450 0.190
0.730 -1.460 0.190
0.520 -1.070 0.140
0.520 -1.080 0.140
0.530 -1.110 0.140
0.520 -1.110 0.140
0.500 -1.100 0.140
0.510 -1.130 0.140
0.660 -1.480 0.180
0.650 -1.490 0.190
0.640 -1.480 0.180
0.630 -1.480 0.180
0.630 -1.510 0.190
0.620 -1.530 0.190
0.610 -1.530 0.190
0.600 -1.520 0.190
0.580 -1.500 0.180
0.580 -1.520 0.190
0.570 -1.540 0.190
0.560 -1.540 0.190
0.560 -1.560 0.190
0.540 -1.540 0.190
0.530 -1.540 0.190
0.530 -1.560 0.190
0.520 -1.560 0.190
0.510 -1.570 0.190
0.500 -1.570 0.190
0.490 -1.570 0.190
0.480 -1.590 0.190
0.470 -1.590 0.190
0.470 -1.600 0.190
0.450 -1.600 0.190
0.450 -1.610 0.190
0.430 -1.600 0.190
0.430 -1.630 0.190
0.420 -1.630 0.190
0.410 -1.630 0.190
0.390 -1.610 0.190
0.390 -1.630 0.190
0.380 -1.630 0.190
0.370 -1.650 0.190
0.360 -1.650 0.190
0.350 -1.650 0.190
0.340 -1.660 0.190
0.330 -1.670 0.190
0.320 -1.670 0.190
0.310 -1.690 0.200
0.300 -1.690 0.200
0.290 -1.690 0.200
0.280 -1.690 0.200
0.270 -1.690 0.200
0.270 -1.720 0.200
0.260 -1.720 0.200
0.250 -1.730 0.200
0.240 -1.730 0.200
0.230 -1.760 0.200
0.210 -1.740 0.200
0.200 -1.740 0.200
0.190 -1.740 0.200
0.180 -1.750 0.200
0.170 -1.770 0.200
0.160 -1.760 0.200
0.150 -1.770 0.200
0.140 -1.780 0.200
0.130 -1.810 0.210
0.120 -1.790 0.200
0.110 -1.790 0.200
0.100 -1.800 0.210
0.090 -1.800 0.210
0.080 -1.830 0.210
0.070 -1.820 0.210
0.060 -1.830 0.210
0.040 -1.820 0.210
0.030 -1.850 0.210
0.020 -1.840 0.210
0.010 -1.840 0.210
0.000 -1.860 0.210
0.000 1.900 0.150
0.010 1.850 0.150
0.020 1.860 0.150
0.030 1.820 0.150
0.040 1.830 0.150
0.060 1.790 0.150
0.070 1.770 0.140
0.080 1.770 0.140
0.090 1.730 0.140
0.100 1.740 0.140
0.100 1.700 0.140
0.120 1.710 0.140
0.120 1.670 0.140
0.130 1.660 0.140
0.140 1.680 0.140
0.150 1.670 0.140
0.170 1.690 0.140
0.180 1.680 0.140
0.190 1.710 0.140
0.200 1.690 0.140
0.210 1.720 0.140
0.220 1.710 0.140
0.240 1.730 0.140
0.250 1.730 0.140
0.260 1.740 0.140
0.270 1.750 0.140
0.280 1.760 0.140
0.300 1.760 0.150
0.310 1.770 0.150
0.320 1.780 0.150
0.330 1.770 0.150
0.340 1.770 0.150
0.360 1.810 0.150
0.370 1.790 0.150
0.380 1.810 0.150
2.390 4.330 0.400
2.420 4.320 0.400
2.440 4.290 0.400
2.450 4.250 0.400
2.470 4.220 0.400
2.490 4.200 0.400
2.500 4.160 0.390
2.520 4.130 0.390
2.550 4.120 0.390
2.560 4.090 0.390
2.570 4.050 0.390
2.580 4.010 0.390
2.590 3.980 0.390
2.630 3.980 0.390
2.630 3.930 0.390
2.660 3.920 0.380
2.670 3.880 0.380
2.690 3.860 0.380
2.690 3.810 0.380
2.710 3.780 0.380
2.740 3.780 0.380
2.740 3.730 0.380
2.750 3.700 0.370
2.780 3.690 0.380
2.800 3.670 0.380
2.800 3.620 0.370
2.820 3.600 0.370
2.840 3.590 0.370
2.850 3.560 0.370
2.860 3.520 0.370
2.880 3.500 0.370
2.910 3.490 0.370
2.930 3.470 0.370
2.920 3.420 0.370
2.940 3.400 0.370
2.960 3.380 0.370
2.970 3.350 0.360
2.990 3.330 0.360
3.000 3.300 0.360
3.020 3.290 0.360
3.030 3.260 0.360
3.040 3.230 0.360
3.070 3.220 0.360
3.090 3.190 0.360
3.080 3.150 0.360
3.100 3.130 0.360
3.120 3.110 0.360
3.130 3.080 0.360
3.160 3.080 0.360
3.150 3.030 0.360
3.180 3.020 0.360
3.190 2.990 0.360
3.200 2.960 0.350
3.210 2.940 0.350
2.100 1.900 0.230
2.110 1.880 0.230
2.120 1.870 0.230
2.110 1.830 0.230
2.120 1.820 0.230
2.140 1.810 0.230
2.150 1.800 0.230
2.170 1.800 0.230
2.170 1.780 0.230
1.900 1.530 0.200
1.900 1.510 0.200
1.900 1.500 0.200
1.940 1.510 0.200
1.930 1.480 0.200
1.970 1.490 0.200
1.950 1.460 0.200
2.230 1.640 0.230
2.240 1.640 0.230
2.250 1.620 0.230
2.240 1.590 0.220
2.280 1.600 0.230
2.260 1.570 0.220
2.310 1.580 0.230
2.280 1.540 0.220
2.300 1.530 0.220
2.310 1.520 0.220
2.260 1.460 0.220
2.340 1.500 0.230
2.300 1.450 0.220
3.610 2.240 0.350
3.610 2.220 0.340
3.640 2.200 0.350
3.640 2.170 0.340
3.670 2.160 0.350
3.680 2.130 0.350
3.700 2.110 0.350
3.700 2.080 0.350
3.720 2.070 0.350
3.730 2.040 0.350
3.740 2.020 0.350
3.760 2.000 0.350
3.760 1.970 0.350
3.790 1.960 0.350
3.780 1.920 0.350
3.800 1.900 0.350
3.840 1.890 0.350
3.830 1.860 0.350
3.830 1.830 0.350
3.860 1.820 0.350
3.870 1.790 0.350
3.900 1.780 0.350
3.920 1.750 0.350
3.920 1.730 0.350
2.680 1.160 0.240
2.540 1.080 0.220
2.500 1.050 0.220
2.510 1.030 0.220
2.510 1.010 0.220
2.530 1.010 0.220
2.540 0.990 0.220
2.550 0.980 0.220
2.550 0.960 0.220
2.570 0.950 0.220
2.570 0.930 0.220
2.560 0.910 0.220
2.590 0.900 0.220
2.610 0.890 0.220
2.420 0.810 0.210
2.370 0.780 0.200
2.370 0.760 0.200
2.370 0.740 0.200
2.390 0.730 0.200
2.390 0.720 0.200
2.390 0.700 0.200
2.380 0.680 0.200
2.670 0.750 0.230
2.680 0.730 0.230
2.680 0.720 0.230
2.680 0.700 0.230
2.690 0.680 0.230
2.720 0.670 0.230
2.710 0.650 0.230
2.740 0.640 0.230
2.730 0.620 0.230
4.330 0.960 0.360
4.390 0.940 0.360
4.390 0.920 0.360
4.410 0.890 0.370
4.410 0.870 0.370
4.420 0.840 0.370
4.440 0.820 0.370
4.460 0.790 0.370
4.480 0.760 0.370
4.490 0.740 0.370
4.450 0.700 0.370
4.400 0.670 0.360
4.320 0.630 0.360
4.250 0.590 0.350
4.210 0.560 0.350
4.140 0.520 0.340
4.100 0.490 0.340
4.020 0.460 0.330
3.970 0.430 0.330
3.940 0.400 0.320
3.870 0.370 0.320
3.860 0.340 0.310
3.780 0.310 0.310
3.710 0.290 0.300
3.690 0.260 0.300
3.630 0.230 0.300
3.590 0.210 0.290
3.570 0.190 0.290
3.500 0.160 0.290
3.480 0.140 0.280
3.430 0.120 0.280
3.390 0.090 0.280
3.370 0.070 0.270
3.320 0.050 0.270
3.290 0.030 0.270
3.260 0.010 0.260
3.230 -0.010 0.260
3.170 -0.030 0.260
3.160 -0.050 0.260
3.110 -0.070 0.250
3.110 -0.090 0.250
3.060 -0.100 0.250
3.020 -0.120 0.250
3.010 -0.140 0.240
2.960 -0.150 0.240
2.950 -0.170 0.240
2.910 -0.190 0.240
2.900 -0.210 0.240
2.850 -0.220 0.230
2.820 -0.230 0.230
2.810 -0.250 0.230
2.760 -0.260 0.230
2.760 -0.280 0.230
2.720 -0.290 0.220
2.710 -0.310 0.220
2.660 -0.320 0.220
2.660 -0.340 0.220
2.630 -0.350 0.220
2.620 -0.360 0.210
2.590 -0.380 0.210
2.570 -0.390 0.210
2.550 -0.400 0.210
2.530 -0.420 0.210
2.510 -0.430 0.210
2.480 -0.440 0.210
1.830 -0.340 0.150
1.810 -0.340 0.150
1.820 -0.360 0.150
1.850 -0.380 0.150
1.830 -0.380 0.150
1.860 -0.400 0.150
1.850 -0.410 0.150
1.880 -0.430 0.160
1.870 -0.440 0.160
1.890 -0.460 0.160
1.890 -0.470 0.160
1.900 -0.480 0.160
1.910 -0.500 0.160
1.930 -0.520 0.160
1.930 -0.530 0.160
1.940 -0.540 0.160
1.940 -0.560 0.160
1.950 -0.570 0.170
1.960 -0.590 0.170
1.980 -0.610 0.170
1.980 -0.620 0.170
1.990 -0.640 0.170
2.010 -0.660 0.170
2.000 -0.670 0.170
1.990 -0.680 0.170
1.980 -0.690 0.170
1.970 -0.700 0.170
1.940 -0.700 0.170
1.950 -0.720 0.170
1.930 -0.720 0.170
1.890 -0.730 0.170
1.890 -0.740 0.160
1.850 -0.740 0.160
1.870 -0.750 0.160
1.850 -0.760 0.160
1.820 -0.760 0.160
1.800 -0.770 0.160
1.810 -0.780 0.160
1.780 -0.780 0.160
1.790 -0.800 0.160
1.780 -0.810 0.160
1.750 -0.810 0.160
1.740 -0.820 0.160
1.730 -0.830 0.160
1.710 -0.830 0.160
1.710 -0.840 0.160
1.700 -0.850 0.150
1.670 -0.850 0.150
1.660 -0.860 0.150
1.650 -0.870 0.150
1.660 -0.880 0.150
1.630 -0.880 0.150
1.640 -0.900 0.150
1.600 -0.890 0.150
1.600 -0.900 0.150
1.590 -0.910 0.150
1.580 -0.910 0.150
1.560 -0.920 0.150
1.550 -0.930 0.150
1.540 -0.930 0.150
1.520 -0.930 0.150
1.530 -0.950 0.150
1.520 -0.960 0.150
1.490 -0.950 0.140
1.480 -0.960 0.140
1.460 -0.960 0.140
1.480 -0.980 0.140
1.450 -0.980 0.140
1.450 -0.990 0.140
1.440 -1.000 0.140
1.420 -1.000 0.140
1.400 -0.990 0.140
1.390 -1.000 0.140
1.400 -1.020 0.140
1.370 -1.010 0.140
1.360 -1.010 0.140
1.360 -1.030 0.140
1.360 -1.040 0.140
1.330 -1.040 0.140
1.320 -1.040 0.140
1.330 -1.060 0.140
1.310 -1.060 0.140
1.290 -1.060 0.140
0.980 -0.810 0.100
0.980 -0.820 0.100
0.990 -0.840 0.110
0.980 -0.840 0.100
0.990 -0.870 0.110
1.000 -0.880 0.110
1.020 -0.910 0.110
1.030 -0.930 0.110
1.050 -0.960 0.120
1.080 -1.000 0.120
1.070 -1.000 0.120
1.080 -1.030 0.120
1.120 -1.070 0.130
1.130 -1.100 0.130
1.140 -1.120 0.130
1.160 -1.150 0.130
1.180 -1.190 0.140
1.170 -1.190 0.140
1.170 -1.210 0.140
1.140 -1.190 0.130
1.150 -1.210 0.140
1.130 -1.220 0.140
1.120 -1.220 0.140
1.110 -1.220 0.130
1.110 -1.240 0.140
1.100 -1.240 0.130
1.090 -1.250 0.140
1.070 -1.230 0.130
1.060 -1.240 0.130
1.060 -1.260 0.130
1.050 -1.260 0.130
1.050 -1.280 0.130
1.040 -1.280 0.130
1.010 -1.260 0.130
1.000 -1.260 0.130
0.990 -1.260 0.130
1.000 -1.290 0.130
0.980 -1.290 0.130
0.990 -1.320 0.130
0.970 -1.300 0.130
0.960 -1.300 0.130
0.960 -1.320 0.130
0.950 -1.330 0.130
0.920 -1.310 0.130
0.940 -1.340 0.130
0.910 -1.330 0.130
0.930 -1.370 0.130
0.900 -1.340 0.130
0.890 -1.350 0.130
0.890 -1.360 0.130
0.840 -1.300 0.130
0.880 -1.380 0.130
0.840 -1.330 0.130
0.840 -1.370 0.130
0.830 -1.370 0.130
0.830 -1.390 0.130
0.820 -1.380 0.130
0.820 -1.400 0.130
0.810 -1.400 0.130
0.800 -1.410 0.130
0.780 -1.400 0.130
0.780 -1.420 0.130
0.770 -1.420 0.130
0.760 -1.420 0.130
0.760 -1.440 0.130
0.740 -1.420 0.130
0.740 -1.440 0.130
0.720 -1.430 0.130
0.710 -1.440 0.130
0.540 -1.110 0.100
0.530 -1.100 0.100
0.520 -1.090 0.100
0.520 -1.110 0.100
0.510 -1.110 0.100
0.510 -1.130 0.100
0.510 -1.150 0.100
0.650 -1.500 0.130
0.650 -1.500 0.130
0.630 -1.490 0.130
0.630 -1.510 0.130
0.620 -1.510 0.130
0.600 -1.500 0.130
0.600 -1.530 0.130
0.590 -1.530 0.130
0.580 -1.540 0.130
0.570 -1.530 0.130
0.560 -1.540 0.130
0.550 -1.540 0.130
0.540 -1.540 0.130
0.540 -1.560 0.130
0.530 -1.580 0.140
0.510 -1.540 0.130
0.500 -1.560 0.130
0.500 -1.580 0.130
0.490 -1.580 0.130
0.480 -1.600 0.140
0.470 -1.590 0.140
0.460 -1.590 0.130
0.450 -1.580 0.130
0.450 -1.610 0.140
0.440 -1.610 0.140
0.420 -1.610 0.140
0.410 -1.610 0.130
0.400 -1.610 0.130
0.400 -1.630 0.140
0.390 -1.620 0.140
0.380 -1.650 0.140
0.370 -1.640 0.140
0.360 -1.620 0.140
0.350 -1.670 0.140
0.340 -1.670 0.140
0.340 -1.680 0.140
0.320 -1.670 0.140
0.310 -1.670 0.140
0.300 -1.690 0.140
0.290 -1.690 0.140
0.290 -1.700 0.140
0.270 -1.700 0.140
0.270 -1.710 0.140
0.260 -1.730 0.140
0.250 -1.720 0.140
0.230 -1.720 0.140
0.230 -1.740 0.140
0.210 -1.730 0.140
0.210 -1.760 0.140
0.190 -1.740 0.140
0.180 -1.750 0.140
0.180 -1.770 0.150
0.160 -1.760 0.140
0.160 -1.800 0.150
0.140 -1.770 0.140
0.130 -1.760 0.140
0.120 -1.790 0.150
0.110 -1.790 0.150
0.100 -1.790 0.150
0.090 -1.820 0.150
0.080 -1.800 0.150
0.070 -1.820 0.150
0.060 -1.820 0.150
0.040 -1.830 0.150
0.030 -1.850 0.150
0.020 -1.840 0.150
0.010 -1.850 0.150
0.000 -1.860 0.150
0.000 1.880 0.090
0.010 1.880 0.090
0.020 1.830 0.090
0.030 1.840 0.090
0.040 1.800 0.090
0.050 1.790 0.090
0.070 1.780 0.090
0.080 1.760 0.090
0.090 1.730 0.080
0.100 1.730 0.080
0.110 1.710 0.080
0.110 1.700 0.080
0.120 1.670 0.080
0.130 1.680 0.080
0.150 1.680 0.080
0.160 1.690 0.080
0.170 1.680 0.080
0.180 1.720 0.080
0.190 1.700 0.080
0.200 1.720 0.080
0.210 1.710 0.080
0.220 1.700 0.080
0.240 1.740 0.090
0.250 1.760 0.090
0.260 1.740 0.090
0.270 1.760 0.090
0.280 1.740 0.090
0.290 1.740 0.090
0.310 1.770 0.090
0.320 1.780 0.090
0.330 1.780 0.090
0.340 1.780 0.090
0.360 1.790 0.090
0.370 1.810 0.090
0.380 1.800 0.090
2.360 4.400 0.240
2.400 4.350 0.240
2.420 4.330 0.240
2.440 4.300 0.240
2.440 4.230 0.240
2.470 4.220 0.240
2.490 4.210 0.240
2.500 4.160 0.240
2.520 4.140 0.240
2.550 4.130 0.240
2.550 4.070 0.230
2.580 4.060 0.230
2.590 4.020 0.230
2.610 4.000 0.230
2.630 3.980 0.230
2.630 3.930 0.230
2.660 3.920 0.230
2.670 3.880 0.230
2.690 3.860 0.230
2.700 3.820 0.230
2.710 3.790 0.230
2.740 3.790 0.230
2.750 3.750 0.230
2.770 3.730 0.230
2.790 3.700 0.230
2.800 3.670 0.220
2.810 3.630 0.220
2.830 3.620 0.220
2.820 3.560 0.220
2.860 3.560 0.220
2.870 3.530 0.220
2.880 3.500 0.220
2.920 3.510 0.220
2.930 3.470 0.220
2.900 3.400 0.220
2.940 3.400 0.220
2.950 3.370 0.220
2.990 3.370 0.220
2.990 3.330 0.220
3.010 3.310 0.220
3.020 3.280 0.220
3.050 3.280 0.220
3.050 3.240 0.220
3.050 3.200 0.220
3.070 3.170 0.220
3.090 3.160 0.220
3.100 3.130 0.210
3.100 3.090 0.210
3.110 3.060 0.210
3.140 3.050 0.210
3.170 3.040 0.210
3.180 3.010 0.210
3.180 2.980 0.210
3.190 2.960 0.210
3.200 2.930 0.210
2.090 1.890 0.140
2.110 1.880 0.140
2.120 1.870 0.140
2.100 1.830 0.140
2.210 1.900 0.140
2.240 1.900 0.140
2.310 1.940 0.150
2.320 1.920 0.150
2.320 1.900 0.150
1.920 1.550 0.120
1.910 1.520 0.120
1.940 1.520 0.120
1.950 1.510 0.120
1.920 1.470 0.120
1.950 1.480 0.120
1.970 1.470 0.120
2.430 1.790 0.150
2.450 1.790 0.150
2.440 1.760 0.150
2.430 1.730 0.150
2.440 1.710 0.150
2.450 1.690 0.150
2.440 1.660 0.140
2.450 1.650 0.140
2.440 1.620 0.140
2.320 1.520 0.140
2.320 1.500 0.130
2.310 1.480 0.130
2.330 1.470 0.130
2.700 1.680 0.150
3.630 2.230 0.210
3.630 2.200 0.210
3.660 2.190 0.210
3.660 2.160 0.210
3.660 2.120 0.210
3.680 2.110 0.210
3.700 2.090 0.210
3.740 2.080 0.210
3.750 2.050 0.210
3.730 2.010 0.210
3.750 2.000 0.210
3.760 1.970 0.210
3.770 1.940 0.210
3.800 1.930 0.210
3.800 1.900 0.210
3.820 1.880 0.210
3.850 1.870 0.210
3.430 1.640 0.190
3.230 1.520 0.170
3.130 1.450 0.170
3.160 1.440 0.170
2.890 1.300 0.150
2.780 1.230 0.150
2.710 1.180 0.140
2.550 1.090 0.140
2.500 1.050 0.130
2.520 1.040 0.130
2.510 1.010 0.130
2.720 1.080 0.140
2.720 1.060 0.140
2.740 1.050 0.140
2.720 1.020 0.140
2.720 1.000 0.140
2.720 0.990 0.140
2.720 0.960 0.140
2.730 0.950 0.140
2.720 0.930 0.140
2.430 0.810 0.120
2.370 0.780 0.120
2.350 0.760 0.120
2.370 0.750 0.120
2.390 0.730 0.120
2.380 0.710 0.120
2.400 0.700 0.120
2.390 0.690 0.120
2.880 0.810 0.150
2.890 0.790 0.150
2.870 0.770 0.140
2.880 0.750 0.140
2.760 0.700 0.140
2.710 0.670 0.140
2.730 0.660 0.140
2.710 0.640 0.140
2.730 0.620 0.140
4.410 0.980 0.220
4.380 0.940 0.220
4.400 0.920 0.220
4.410 0.890 0.220
4.410 0.860 0.220
4.420 0.840 0.220
4.440 0.820 0.220
4.470 0.790 0.220
4.470 0.760 0.220
4.480 0.740 0.220
4.440 0.700 0.220
4.380 0.660 0.220
4.330 0.630 0.210
4.260 0.590 0.210
4.220 0.560 0.210
4.120 0.520 0.200
4.070 0.490 0.200
4.030 0.460 0.200
3.980 0.430 0.200
3.930 0.400 0.190
3.880 0.370 0.190
3.850 0.340 0.190
3.790 0.320 0.190
3.720 0.290 0.180
3.690 0.260 0.180
3.640 0.240 0.180
3.630 0.210 0.180
3.560 0.190 0.170
3.520 0.160 0.170
3.480 0.140 0.170
3.450 0.120 0.170
3.410 0.090 0.170
3.370 0.070 0.160
3.320 0.050 0.160
3.280 0.030 0.160
3.240 0.010 0.160
3.210 -0.010 0.160
3.200 -0.030 0.160
3.140 -0.050 0.150
3.130 -0.070 0.150
3.080 -0.090 0.150
3.050 -0.100 0.150
3.040 -0.120 0.150
3.000 -0.140 0.150
2.960 -0.150 0.140
2.940 -0.170 0.140
2.910 -0.190 0.140
2.890 -0.200 0.140
2.850 -0.220 0.140
2.840 -0.240 0.140
2.810 -0.250 0.140
2.790 -0.270 0.140
2.740 -0.280 0.130
2.760 -0.300 0.140
2.700 -0.310 0.130
2.700 -0.320 0.130
2.650 -0.340 0.130
2.620 -0.350 0.130
2.630 -0.370 0.130
2.620 -0.380 0.130
2.570 -0.390 0.130
2.560 -0.410 0.130
2.510 -0.410 0.120
2.490 -0.420 0.120
2.490 -0.440 0.120
1.830 -0.340 0.090
1.830 -0.350 0.090
1.820 -0.360 0.090
1.830 -0.370 0.090
1.850 -0.390 0.090
1.850 -0.400 0.090
1.870 -0.410 0.090
1.860 -0.430 0.090
1.890 -0.440 0.090
1.900 -0.460 0.100
1.910 -0.470 0.100
1.890 -0.480 0.090
1.910 -0.500 0.100
1.910 -0.510 0.100
1.930 -0.530 0.100
1.940 -0.540 0.100
1.970 -0.570 0.100
1.970 -0.580 0.100
1.960 -0.590 0.100
1.980 -0.610 0.100
1.990 -0.630 0.100
2.000 -0.640 0.100
2.020 -0.660 0.100
2.000 -0.670 0.100
1.980 -0.680 0.100
1.970 -0.690 0.100
1.950 -0.690 0.100
1.940 -0.700 0.100
1.940 -0.720 0.100
1.940 -0.730 0.100
1.890 -0.720 0.100
1.910 -0.740 0.100
1.870 -0.740 0.100
1.850 -0.750 0.100
1.850 -0.760 0.100
1.830 -0.770 0.100
1.820 -0.770 0.100
1.810 -0.790 0.100
1.780 -0.790 0.100
1.770 -0.790 0.090
1.770 -0.810 0.090
1.720 -0.800 0.090
1.750 -0.820 0.090
1.720 -0.820 0.090
1.710 -0.830 0.090
1.690 -0.840 0.090
1.670 -0.840 0.090
1.670 -0.850 0.090
1.680 -0.870 0.090
1.670 -0.870 0.090
1.660 -0.880 0.090
1.620 -0.870 0.090
1.640 -0.900 0.090
1.620 -0.900 0.090
1.610 -0.910 0.090
1.600 -0.910 0.090
1.560 -0.900 0.090
1.560 -0.920 0.090
1.560 -0.930 0.090
1.540 -0.930 0.090
1.530 -0.940 0.090
1.540 -0.950 0.090
1.510 -0.950 0.090
1.510 -0.960 0.090
1.490 -0.970 0.090
1.480 -0.970 0.090
1.480 -0.980 0.090
1.450 -0.980 0.090
1.460 -1.000 0.090
1.440 -1.000 0.090
1.430 -1.010 0.090
1.410 -1.010 0.080
1.400 -1.010 0.080
1.410 -1.030 0.090
1.380 -1.020 0.080
1.380 -1.040 0.080
1.370 -1.040 0.080
1.360 -1.040 0.080
1.340 -1.040 0.080
1.340 -1.060 0.080
1.300 -1.030 0.080
1.320 -1.060 0.080
1.300 -1.060 0.080
0.980 -0.810 0.060
1.000 -0.840 0.060
0.980 -0.830 0.060
0.950 -0.820 0.060
0.990 -0.860 0.060
0.990 -0.870 0.060
1.030 -0.920 0.070
1.040 -0.940 0.070
1.050 -0.960 0.070
1.070 -0.990 0.070
1.090 -1.020 0.070
1.090 -1.040 0.070
1.100 -1.050 0.070
1.120 -1.090 0.080
1.140 -1.130 0.080
1.160 -1.150 0.080
1.160 -1.170 0.080
1.140 -1.170 0.080
1.150 -1.190 0.080
1.160 -1.210 0.080
1.140 -1.210 0.080
1.120 -1.210 0.080
1.120 -1.210 0.080
1.100 -1.210 0.080
1.100 -1.230 0.080
1.100 -1.240 0.080
1.090 -1.250 0.080
1.060 -1.230 0.080
1.070 -1.250 0.080
1.080 -1.280 0.080
1.040 -1.250 0.080
1.040 -1.260 0.080
1.040 -1.280 0.080
1.030 -1.290 0.080
1.010 -1.270 0.080
1.010 -1.300 0.080
1.010 -1.310 0.080
0.970 -1.280 0.080
0.980 -1.300 0.080
0.980 -1.320 0.080
0.960 -1.300 0.080
0.960 -1.330 0.080
0.950 -1.320 0.080
0.930 -1.320 0.080
0.930 -1.330 0.080
0.920 -1.340 0.080
0.910 -1.340 0.080
0.910 -1.350 0.080
0.890 -1.350 0.080
0.890 -1.370 0.080
0.880 -1.360 0.080
0.860 -1.350 0.080
0.860 -1.370 0.080
0.830 -1.350 0.080
0.840 -1.380 0.080
0.830 -1.380 0.080
0.830 -1.400 0.080
0.810 -1.390 0.080
0.800 -1.380 0.080
0.790 -1.390 0.080
0.790 -1.410 0.080
0.790 -1.440 0.080
0.780 -1.430 0.080
0.760 -1.410 0.080
0.750 -1.420 0.080
0.740 -1.420 0.080
0.730 -1.420 0.080
0.730 -1.440 0.080
0.720 -1.440 0.080
0.540 -1.100 0.060
0.540 -1.110 0.060
0.530 -1.120 0.060
0.520 -1.120 0.060
0.510 -1.100 0.060
0.510 -1.120 0.060
0.500 -1.120 0.060
0.660 -1.500 0.080
0.640 -1.490 0.080
0.640 -1.510 0.080
0.620 -1.500 0.080
0.620 -1.520 0.080
0.600 -1.500 0.080
0.600 -1.520 0.080
0.590 -1.530 0.080
0.590 -1.550 0.080
0.570 -1.530 0.080
0.570 -1.550 0.080
0.560 -1.550 0.080
0.540 -1.550 0.080
0.540 -1.570 0.080
0.530 -1.560 0.080
0.520 -1.560 0.080
0.500 -1.560 0.080
0.500 -1.570 0.080
0.490 -1.580 0.080
0.480 -1.590 0.080
0.470 -1.580 0.080
0.460 -1.600 0.080
0.450 -1.590 0.080
0.450 -1.610 0.080
0.440 -1.620 0.080
0.420 -1.600 0.080
0.420 -1.630 0.080
0.410 -1.630 0.080
0.400 -1.630 0.080
0.390 -1.640 0.080
0.370 -1.620 0.080
0.370 -1.640 0.080
0.370 -1.700 0.080
0.350 -1.670 0.080
0.350 -1.680 0.080
0.330 -1.670 0.080
0.320 -1.670 0.080
0.310 -1.670 0.080
0.300 -1.690 0.080
0.300 -1.700 0.080
0.280 -1.690 0.080
0.270 -1.700 0.080
0.260 -1.700 0.080
0.250 -1.710 0.080
0.250 -1.740 0.090
0.240 -1.730 0.090
0.230 -1.750 0.090
0.210 -1.720 0.080
0.200 -1.730 0.090
0.190 -1.750 0.090
0.180 -1.760 0.090
0.170 -1.760 0.090
0.160 -1.770 0.090
0.150 -1.790 0.090
0.140 -1.790 0.090
0.130 -1.770 0.090
0.120 -1.790 0.090
0.110 -1.790 0.090
0.100 -1.830 0.090
0.090 -1.820 0.090
0.080 -1.820 0.090
0.070 -1.820 0.090
0.060 -1.840 0.090
0.050 -1.840 0.090
0.030 -1.850 0.090
0.020 -1.840 0.090
0.010 -1.850 0.090
0.000 -1.850 0.090
0.000 1.880 0.030
0.010 1.860 0.030
0.020 1.860 0.030
0.030 1.830 0.030
0.040 1.790 0.030
0.050 1.780 0.030
0.060 1.760 0.030
0.080 1.770 0.030
0.090 1.740 0.030
0.100 1.730 0.030
0.100 1.700 0.030
0.110 1.700 0.030
0.120 1.670 0.030
0.130 1.670 0.030
0.140 1.680 0.030
0.160 1.680 0.030
0.170 1.680 0.030
0.180 1.690 0.030
0.190 1.700 0.030
0.200 1.700 0.030
0.210 1.720 0.030
0.220 1.720 0.030
0.230 1.720 0.030
0.240 1.720 0.030
0.260 1.730 0.030
0.280 1.780 0.030
0.280 1.750 0.030
0.300 1.770 0.030
0.310 1.780 0.030
0.320 1.770 0.030
0.330 1.780 0.030
0.350 1.810 0.030
0.360 1.810 0.030
0.370 1.800 0.030
0.380 1.810 0.030
2.390 4.330 0.080
2.410 4.310 0.080
2.450 4.310 0.080
2.450 4.260 0.080
2.470 4.230 0.080
2.490 4.200 0.080
2.500 4.160 0.080
2.520 4.140 0.080
2.540 4.110 0.080
2.540 4.060 0.080
2.580 4.060 0.080
2.580 4.010 0.080
2.600 3.980 0.080
2.610 3.960 0.080
2.630 3.930 0.080
2.660 3.920 0.080
2.660 3.860 0.080
2.690 3.860 0.080
2.690 3.810 0.080
2.720 3.800 0.080
2.740 3.780 0.080
2.760 3.760 0.080
2.760 3.720 0.080
2.790 3.700 0.080
2.810 3.680 0.080
2.790 3.620 0.070
2.830 3.620 0.070
2.840 3.590 0.070
2.870 3.580 0.070
2.880 3.540 0.070
2.890 3.510 0.070
2.900 3.480 0.070
2.920 3.460 0.070
2.930 3.430 0.070
2.940 3.400 0.070
2.960 3.380 0.070
2.980 3.360 0.070
2.980 3.320 0.070
3.000 3.310 0.070
3.010 3.270 0.070
3.020 3.240 0.070
3.050 3.230 0.070
3.070 3.210 0.070
3.080 3.190 0.070
3.080 3.150 0.070
3.090 3.110 0.070
3.110 3.100 0.070
3.140 3.090 0.070
3.160 3.070 0.070
3.170 3.050 0.070
3.180 3.020 0.070
3.180 2.980 0.070
3.200 2.970 0.070
3.220 2.940 0.070
2.090 1.880 0.050
2.110 1.880 0.050
2.110 1.860 0.050
2.100 1.830 0.050
3.280 2.820 0.070
2.480 2.100 0.050
2.490 2.090 0.050
2.500 2.070 0.050
3.330 2.720 0.070
1.920 1.550 0.040
1.910 1.520 0.040
1.930 1.520 0.040
1.920 1.490 0.040
1.940 1.490 0.040
1.940 1.470 0.040
1.950 1.460 0.040
3.430 2.530 0.070
3.480 2.540 0.070
3.490 2.510 0.070
3.370 2.400 0.070
3.400 2.380 0.070
3.400 2.350 0.070
3.430 2.340 0.070
3.490 2.360 0.070
3.530 2.350 0.070
3.560 2.340 0.070
2.340 1.520 0.050
2.320 1.480 0.040
2.330 1.470 0.040
3.610 2.240 0.070
3.630 2.220 0.070
3.630 2.190 0.070
3.640 2.170 0.070
3.660 2.150 0.070
3.680 2.130 0.070
3.690 2.110 0.070
3.690 2.080 0.070
3.730 2.070 0.070
3.740 2.050 0.070
3.730 2.010 0.070
3.750 2.000 0.070
3.770 1.980 0.070
3.790 1.960 0.070
3.800 1.930 0.070
3.800 1.900 0.070
3.840 1.900 0.070
3.830 1.860 0.070
3.500 1.670 0.060
3.530 1.660 0.060
3.130 1.450 0.060
3.170 1.440 0.060
2.900 1.300 0.050
2.900 1.280 0.050
2.890 1.250 0.050
2.880 1.230 0.050
2.510 1.050 0.040
2.500 1.030 0.040
2.540 1.030 0.040
3.870 1.540 0.070
4.010 1.560 0.070
4.030 1.540 0.070
4.060 1.530 0.070
4.030 1.490 0.070
4.050 1.470 0.070
4.070 1.440 0.070
3.730 1.300 0.060
3.750 1.280 0.060
2.440 0.820 0.040
2.380 0.780 0.040
2.370 0.760 0.040
2.380 0.750 0.040
2.390 0.740 0.040
2.370 0.710 0.040
2.400 0.710 0.040
2.390 0.690 0.040
3.120 0.880 0.050
3.100 0.850 0.050
4.250 1.140 0.070
4.250 1.110 0.070
4.280 1.090 0.070
2.720 0.670 0.050
2.730 0.660 0.050
2.730 0.640 0.050
2.750 0.630 0.050
4.370 0.970 0.070
4.370 0.940 0.070
4.370 0.910 0.070
4.400 0.890 0.070
4.410 0.860 0.070
4.430 0.840 0.070
4.460 0.820 0.070
4.460 0.790 0.070
4.480 0.760 0.070
4.500 0.740 0.070
4.440 0.700 0.070
4.380 0.660 0.070
4.320 0.630 0.070
4.220 0.590 0.070
4.190 0.560 0.070
4.140 0.520 0.070
4.060 0.490 0.070
4.020 0.460 0.070
3.970 0.430 0.060
3.920 0.400 0.060
3.870 0.370 0.060
3.820 0.340 0.060
3.790 0.320 0.060
3.730 0.290 0.060
3.680 0.260 0.060
3.650 0.240 0.060
3.600 0.210 0.060
3.580 0.190 0.060
3.520 0.160 0.060
3.480 0.140 0.060
3.450 0.120 0.060
3.400 0.090 0.060
3.370 0.070 0.050
3.320 0.050 0.050
3.300 0.030 0.050
3.260 0.010 0.050
3.210 -0.010 0.050
3.180 -0.030 0.050
3.160 -0.050 0.050
3.120 -0.070 0.050
3.070 -0.080 0.050
3.050 -0.100 0.050
3.010 -0.120 0.050
3.010 -0.140 0.050
2.970 -0.160 0.050
2.940 -0.170 0.050
2.910 -0.190 0.050
2.890 -0.200 0.050
2.850 -0.220 0.050
2.830 -0.240 0.050
2.810 -0.250 0.050
2.780 -0.270 0.050
2.740 -0.280 0.040
2.730 -0.290 0.040
2.700 -0.310 0.040
2.680 -0.320 0.040
2.670 -0.340 0.040
2.640 -0.350 0.040
2.600 -0.360 0.040
2.570 -0.370 0.040
2.560 -0.390 0.040
2.570 -0.410 0.040
2.520 -0.410 0.040
2.520 -0.430 0.040
2.500 -0.440 0.040
1.820 -0.330 0.030
1.820 -0.350 0.030
1.850 -0.360 0.030
1.860 -0.380 0.030
1.840 -0.390 0.030
1.850 -0.400 0.030
1.860 -0.410 0.030
1.860 -0.430 0.030
1.880 -0.440 0.030
1.900 -0.460 0.030
1.910 -0.470 0.030
1.900 -0.480 0.030
1.910 -0.500 0.030
1.930 -0.520 0.030
1.930 -0.530 0.030
1.950 -0.550 0.030
1.930 -0.560 0.030
1.970 -0.580 0.030
1.960 -0.590 0.030
1.980 -0.610 0.030
1.980 -0.620 0.030
2.010 -0.640 0.030
2.000 -0.660 0.030
2.010 -0.670 0.030
2.000 -0.680 0.030
1.990 -0.690 0.030
1.970 -0.700 0.030
1.950 -0.700 0.030
1.920 -0.710 0.030
1.930 -0.720 0.030
1.900 -0.730 0.030
1.890 -0.740 0.030
1.870 -0.740 0.030
1.850 -0.750 0.030
1.850 -0.760 0.030
1.830 -0.770 0.030
1.810 -0.770 0.030
1.790 -0.770 0.030
1.790 -0.790 0.030
1.790 -0.800 0.030
1.770 -0.810 0.030
1.760 -0.810 0.030
1.730 -0.820 0.030
1.730 -0.830 0.030
1.740 -0.850 0.030
1.700 -0.840 0.030
1.670 -0.840 0.030
1.670 -0.850 0.030
1.680 -0.870 0.030
1.650 -0.860 0.030
1.640 -0.870 0.030
1.640 -0.890 0.030
1.630 -0.890 0.030
1.600 -0.890 0.030
1.600 -0.900 0.030
1.610 -0.920 0.030
1.580 -0.920 0.030
1.570 -0.920 0.030
1.550 -0.930 0.030
1.540 -0.930 0.030
1.540 -0.940 0.030
1.510 -0.940 0.030
1.490 -0.940 0.030
1.510 -0.970 0.030
1.480 -0.960 0.030
1.470 -0.960 0.030
1.450 -0.970 0.030
1.450 -0.980 0.030
1.450 -0.990 0.030
1.420 -0.980 0.030
1.430 -1.000 0.030
1.400 -0.990 0.030
1.400 -1.010 0.030
1.410 -1.030 0.030
1.390 -1.030 0.030
1.370 -1.030 0.030
1.370 -1.040 0.030
1.370 -1.050 0.030
1.330 -1.030 0.030
1.340 -1.050 0.030
1.330 -1.060 0.030
1.330 -1.080 0.030
1.310 -1.070 0.030
0.990 -0.820 0.020
0.970 -0.810 0.020
0.970 -0.830 0.020
0.990 -0.850 0.020
1.000 -0.870 0.020
1.000 -0.880 0.020
1.020 -0.910 0.020
1.030 -0.930 0.020
1.050 -0.960 0.020
1.060 -0.990 0.020
1.060 -0.990 0.020
1.080 -1.030 0.020
1.110 -1.070 0.030
1.130 -1.100 0.030
1.140 -1.120 0.030
1.140 -1.140 0.030
1.170 -1.180 0.030
1.170 -1.200 0.030
1.170 -1.210 0.030
1.160 -1.220 0.030
1.150 -1.220 0.030
1.120 -1.210 0.030
1.130 -1.220 0.030
1.120 -1.230 0.030
1.100 -1.220 0.030
1.100 -1.240 0.030
1.080 -1.240 0.030
1.060 -1.220 0.030
1.060 -1.250 0.030
1.050 -1.250 0.030
1.050 -1.260 0.030
1.040 -1.270 0.030
1.030 -1.260 0.030
1.030 -1.280 0.030
1.010 -1.270 0.030
1.010 -1.290 0.030
0.990 -1.280 0.030
0.990 -1.290 0.030
0.970 -1.290 0.030
0.960 -1.300 0.030
0.950 -1.290 0.030
0.970 -1.340 0.030
0.960 -1.340 0.030
0.930 -1.320 0.030
0.930 -1.330 0.030
0.910 -1.330 0.030
0.910 -1.350 0.030
0.900 -1.350 0.030
0.880 -1.330 0.030
0.880 -1.350 0.030
0.890 -1.380 0.030
0.650 -1.030 0.020
0.640 -1.020 0.020
0.600 -0.980 0.020
0.600 -0.980 0.020
0.580 -0.970 0.020
0.570 -0.960 0.020
0.560 -0.970 0.020
0.560 -0.980 0.020
0.550 -0.970 0.020
0.530 -0.950 0.020
0.540 -0.980 0.020
0.530 -0.970 0.020
0.510 -0.950 0.020
0.510 -0.960 0.020
0.500 -0.970 0.020
0.500 -0.970 0.020
0.490 -0.970 0.020
0.480 -0.970 0.020
0.480 -0.990 0.020
0.470 -0.970 0.020
0.460 -0.960 0.020
0.460 -0.980 0.020
0.450 -0.980 0.020
0.450 -1.000 0.020
0.430 -0.970 0.020
0.440 -1.010 0.020
0.430 -0.990 0.020
0.410 -0.980 0.020
0.420 -1.010 0.020
0.410 -1.000 0.020
0.410 -1.030 0.020
0.400 -1.020 0.020
0.400 -1.020 0.020
0.390 -1.040 0.020
0.390 -1.060 0.020
0.370 -1.020 0.020
0.370 -1.030 0.020
0.370 -1.040 0.020
0.360 -1.060 0.020
0.360 -1.080 0.020
0.360 -1.090 0.020
0.360 -1.100 0.020
0.360 -1.120 0.020
0.360 -1.140 0.020
0.490 -1.600 0.030
0.470 -1.570 0.030
0.470 -1.600 0.030
0.450 -1.590 0.030
0.450 -1.620 0.030
0.430 -1.590 0.030
0.430 -1.610 0.030
0.410 -1.600 0.030
0.410 -1.620 0.030
0.400 -1.630 0.030
0.390 -1.640 0.030
0.380 -1.640 0.030
0.370 -1.660 0.030
0.360 -1.660 0.030
0.350 -1.660 0.030
0.340 -1.650 0.030
0.330 -1.670 0.030
0.320 -1.670 0.030
0.310 -1.680 0.030
0.310 -1.700 0.030
0.300 -1.700 0.030
0.290 -1.700 0.030
0.280 -1.720 0.030
0.270 -1.710 0.030
0.250 -1.710 0.030
0.250 -1.720 0.030
0.230 -1.690 0.030
0.220 -1.720 0.030
0.220 -1.740 0.030
0.200 -1.720 0.030
0.190 -1.730 0.030
0.180 -1.740 0.030
0.170 -1.750 0.030
0.160 -1.760 0.030
0.150 -1.770 0.030
0.140 -1.790 0.030
0.130 -1.780 0.030
0.120 -1.780 0.030
0.110 -1.810 0.030
0.100 -1.800 0.030
0.090 -1.830 0.030
0.080 -1.820 0.030
0.070 -1.830 0.030
0.060 -1.840 0.030
0.050 -1.830 0.030
0.030 -1.850 0.030
0.020 -1.840 0.030
0.010 -1.860 0.030
0.000 -1.860 0.030
0.000 1.890 -0.030
0.010 1.880 -0.030
0.020 1.840 -0.030
0.030 1.820 -0.030
0.040 1.800 -0.030
0.060 1.810 -0.030
0.070 1.760 -0.030
0.080 1.740 -0.030
0.090 1.730 -0.030
0.100 1.730 -0.030
0.100 1.690 -0.030
0.110 1.690 -0.030
0.120 1.680 -0.030
0.130 1.660 -0.030
0.140 1.670 -0.030
0.150 1.670 -0.030
0.170 1.700 -0.030
0.180 1.710 -0.030
0.190 1.700 -0.030
0.200 1.700 -0.030
0.210 1.710 -0.030
0.220 1.730 -0.030
0.230 1.710 -0.030
0.250 1.750 -0.030
0.260 1.750 -0.030
0.270 1.740 -0.030
0.280 1.750 -0.030
0.300 1.770 -0.030
0.310 1.760 -0.030
0.320 1.770 -0.030
0.330 1.770 -0.030
0.350 1.800 -0.030
0.360 1.790 -0.030
0.370 1.800 -0.030
0.390 1.820 -0.030
2.390 4.390 -0.080
2.400 4.350 -0.080
2.410 4.300 -0.080
2.440 4.300 -0.080
2.450 4.250 -0.080
2.470 4.230 -0.080
2.490 4.200 -0.080
2.500 4.160 -0.080
2.520 4.140 -0.080
2.540 4.110 -0.080
2.560 4.090 -0.080
2.580 4.060 -0.080
2.590 4.020 -0.080
2.610 4.000 -0.080
2.620 3.960 -0.080
2.620 3.920 -0.080
2.670 3.930 -0.080
2.670 3.880 -0.080
2.680 3.850 -0.080
2.690 3.810 -0.080
2.720 3.800 -0.080
2.730 3.770 -0.080
2.760 3.750 -0.080
2.750 3.700 -0.070
2.790 3.710 -0.080
2.800 3.670 -0.070
2.800 3.620 -0.070
2.820 3.600 -0.070
2.840 3.580 -0.070
2.870 3.580 -0.070
2.870 3.530 -0.070
2.890 3.510 -0.070
2.910 3.490 -0.070
2.900 3.440 -0.070
2.930 3.430 -0.070
2.940 3.400 -0.070
2.970 3.390 -0.070
2.960 3.340 -0.070
2.970 3.310 -0.070
2.990 3.290 -0.070
3.000 3.260 -0.070
3.040 3.260 -0.070
3.060 3.240 -0.070
3.060 3.200 -0.070
3.080 3.180 -0.070
3.080 3.140 -0.070
3.120 3.150 -0.070
3.110 3.100 -0.070
3.110 3.060 -0.070
3.150 3.070 -0.070
3.160 3.040 -0.070
3.150 2.990 -0.070
3.240 3.040 -0.070
3.210 2.970 -0.070
3.200 2.930 -0.070
2.090 1.880 -0.050
2.100 1.880 -0.050
2.120 1.870 -0.050
2.120 1.840 -0.050
3.290 2.830 -0.070
2.480 2.100 -0.050
2.520 2.110 -0.050
2.490 2.060 -0.050
3.320 2.710 -0.070
1.900 1.540 -0.040
1.910 1.520 -0.040
1.930 1.520 -0.040
1.920 1.490 -0.040
1.930 1.480 -0.040
1.930 1.470 -0.040
1.950 1.460 -0.040
3.430 2.530 -0.070
3.450 2.520 -0.070
3.460 2.490 -0.070
3.370 2.400 -0.070
3.390 2.380 -0.070
3.400 2.350 -0.070
3.420 2.340 -0.070
3.480 2.350 -0.070
3.540 2.360 -0.070
3.560 2.340 -0.070
2.320 1.500 -0.040
2.330 1.490 -0.040
2.330 1.470 -0.040
3.640 2.260 -0.070
3.610 2.210 -0.070
3.620 2.190 -0.070
3.650 2.180 -0.070
3.650 2.150 -0.070
3.650 2.120 -0.070
3.690 2.110 -0.070
3.690 2.080 -0.070
3.710 2.060 -0.070
3.730 2.040 -0.070
3.740 2.020 -0.070
3.760 2.000 -0.070
3.780 1.980 -0.070
3.780 1.950 -0.070
3.790 1.920 -0.070
3.800 1.900 -0.070
3.830 1.890 -0.070
3.840 1.860 -0.070
3.500 1.670 -0.060
3.540 1.670 -0.060
3.140 1.450 -0.060
3.160 1.440 -0.060
3.910 1.750 -0.070
2.890 1.270 -0.050
2.910 1.260 -0.050
2.890 1.230 -0.050
2.500 1.050 -0.040
2.520 1.040 -0.040
2.520 1.020 -0.040
3.870 1.540 -0.070
3.990 1.550 -0.070
4.010 1.540 -0.070
4.030 1.510 -0.070
4.060 1.500 -0.070
4.060 1.470 -0.070
4.060 1.440 -0.070
3.740 1.300 -0.060
3.740 1.280 -0.060
2.440 0.820 -0.040
2.380 0.780 -0.040
2.360 0.760 -0.040
2.380 0.750 -0.040
2.380 0.730 -0.040
2.400 0.720 -0.040
2.400 0.710 -0.040
2.410 0.690 -0.040
3.130 0.880 -0.050
3.130 0.860 -0.050
4.230 1.130 -0.070
4.260 1.110 -0.070
4.270 1.090 -0.070
2.740 0.680 -0.050
2.720 0.660 -0.050
2.740 0.640 -0.050
2.750 0.630 -0.050
4.360 0.970 -0.070
4.370 0.940 -0.070
4.390 0.920 -0.070
4.380 0.890 -0.070
4.410 0.860 -0.070
4.450 0.840 -0.070
4.450 0.820 -0.070
4.480 0.790 -0.070
4.480 0.760 -0.070
4.490 0.740 -0.070
4.430 0.700 -0.070
4.380 0.670 -0.070
4.340 0.630 -0.070
4.260 0.590 -0.070
4.210 0.560 -0.070
4.130 0.520 -0.070
4.090 0.490 -0.070
4.030 0.460 -0.070
4.000 0.430 -0.070
3.940 0.400 -0.060
3.880 0.370 -0.060
3.820 0.340 -0.060
3.770 0.310 -0.060
3.740 0.290 -0.060
3.700 0.260 -0.060
3.640 0.240 -0.060
3.590 0.210 -0.060
3.560 0.190 -0.060
3.520 0.160 -0.060
3.470 0.140 -0.060
3.440 0.120 -0.060
3.400 0.090 -0.060
3.360 0.070 -0.050
3.330 0.050 -0.050
3.300 0.030 -0.050
3.250 0.010 -0.050
3.220 -0.010 -0.050
3.190 -0.030 -0.050
3.150 -0.050 -0.050
3.110 -0.070 -0.050
3.080 -0.090 -0.050
3.070 -0.100 -0.050
3.020 -0.120 -0.050
2.980 -0.140 -0.050
2.960 -0.150 -0.050
2.950 -0.170 -0.050
2.900 -0.190 -0.050
2.880 -0.200 -0.050
2.860 -0.220 -0.050
2.820 -0.230 -0.050
2.800 -0.250 -0.050
2.770 -0.260 -0.050
2.770 -0.280 -0.050
2.740 -0.300 -0.040
2.700 -0.310 -0.040
2.680 -0.320 -0.040
2.650 -0.340 -0.040
2.640 -0.350 -0.040
2.590 -0.360 -0.040
2.600 -0.380 -0.040
2.570 -0.390 -0.040
2.540 -0.400 -0.040
2.520 -0.410 -0.040
2.510 -0.430 -0.040
2.470 -0.440 -0.040
1.820 -0.330 -0.030
1.820 -0.340 -0.030
1.840 -0.360 -0.030
1.830 -0.370 -0.030
1.840 -0.380 -0.030
1.860 -0.400 -0.030
1.860 -0.410 -0.030
1.880 -0.430 -0.030
1.900 -0.450 -0.030
1.890 -0.450 -0.030
1.900 -0.470 -0.030
1.890 -0.480 -0.030
1.930 -0.500 -0.030
1.920 -0.510 -0.030
1.930 -0.530 -0.030
1.960 -0.550 -0.030
1.950 -0.560 -0.030
1.940 -0.570 -0.030
1.990 -0.600 -0.030
1.970 -0.600 -0.030
1.990 -0.620 -0.030
2.000 -0.640 -0.030
2.000 -0.660 -0.030
1.990 -0.670 -0.030
1.990 -0.680 -0.030
1.970 -0.690 -0.030
1.960 -0.700 -0.030
1.960 -0.710 -0.030
1.920 -0.710 -0.030
1.930 -0.720 -0.030
1.890 -0.730 -0.030
1.880 -0.730 -0.030
1.870 -0.740 -0.030
1.850 -0.750 -0.030
1.840 -0.760 -0.030
1.830 -0.770 -0.030
1.810 -0.770 -0.030
1.800 -0.780 -0.030
1.800 -0.790 -0.030
1.780 -0.800 -0.030
1.790 -0.810 -0.030
1.740 -0.810 -0.030
1.730 -0.810 -0.030
1.720 -0.820 -0.030
1.730 -0.840 -0.030
1.710 -0.840 -0.030
1.690 -0.850 -0.030
1.660 -0.840 -0.030
1.660 -0.860 -0.030
1.650 -0.870 -0.030
1.630 -0.870 -0.030
1.640 -0.880 -0.030
1.630 -0.890 -0.030
1.620 -0.900 -0.030
1.580 -0.890 -0.030
1.600 -0.910 -0.030
1.570 -0.910 -0.030
1.560 -0.920 -0.030
1.560 -0.930 -0.030
1.540 -0.930 -0.030
1.530 -0.940 -0.030
1.520 -0.940 -0.030
1.530 -0.960 -0.030
1.510 -0.960 -0.030
1.490 -0.970 -0.030
1.480 -0.970 -0.030
1.460 -0.970 -0.030
1.440 -0.970 -0.030
1.460 -1.000 -0.030
1.440 -0.990 -0.030
1.420 -1.000 -0.030
1.410 -1.000 -0.030
1.400 -1.010 -0.030
1.400 -1.020 -0.030
1.390 -1.030 -0.030
1.360 -1.020 -0.030
1.370 -1.040 -0.030
1.360 -1.050 -0.030
1.330 -1.030 -0.030
1.330 -1.040 -0.030
1.330 -1.060 -0.030
1.330 -1.070 -0.030
1.300 -1.070 -0.030
0.990 -0.820 -0.020
0.980 -0.820 -0.020
0.950 -0.810 -0.020
0.980 -0.840 -0.020
1.000 -0.870 -0.020
1.010 -0.890 -0.020
1.000 -0.890 -0.020
1.010 -0.910 -0.020
1.040 -0.950 -0.020
1.050 -0.970 -0.020
1.070 -1.010 -0.020
1.100 -1.040 -0.020
1.100 -1.060 -0.020
1.120 -1.090 -0.030
1.130 -1.110 -0.030
1.180 -1.170 -0.030
1.170 -1.180 -0.030
1.140 -1.170 -0.030
1.170 -1.210 -0.030
1.150 -1.200 -0.030
1.120 -1.190 -0.030
1.180 -1.270 -0.030
1.130 -1.230 -0.030
1.100 -1.210 -0.030
1.100 -1.220 -0.030
1.090 -1.230 -0.030
1.090 -1.240 -0.030
1.060 -1.230 -0.030
1.070 -1.250 -0.030
1.060 -1.250 -0.030
1.070 -1.290 -0.030
1.030 -1.250 -0.030
1.020 -1.250 -0.030
1.020 -1.270 -0.030
1.010 -1.270 -0.030
1.010 -1.290 -0.030
0.990 -1.280 -0.030
0.980 -1.280 -0.030
0.970 -1.290 -0.030
0.970 -1.300 -0.030
0.950 -1.290 -0.030
0.950 -1.310 -0.030
0.940 -1.310 -0.030
0.930 -1.320 -0.030
0.930 -1.330 -0.030
0.910 -1.330 -0.030
0.910 -1.340 -0.030
0.900 -1.340 -0.030
0.890 -1.340 -0.030
0.880 -1.360 -0.030
0.870 -1.360 -0.030
0.870 -1.370 -0.030
0.850 -1.360 -0.030
0.650 -1.050 -0.020
0.610 -1.000 -0.020
0.590 -0.990 -0.020
0.590 -0.990 -0.020
0.570 -0.980 -0.020
0.560 -0.960 -0.020
0.560 -0.980 -0.020
0.540 -0.970 -0.020
0.540 -0.980 -0.020
0.530 -0.970 -0.020
0.520 -0.970 -0.020
0.520 -0.980 -0.020
0.510 -0.990 -0.020
0.500 -0.970 -0.020
0.490 -0.970 -0.020
0.490 -0.980 -0.020
0.480 -0.980 -0.020
0.480 -0.990 -0.020
0.460 -0.970 -0.020
0.470 -1.000 -0.020
0.460 -0.990 -0.020
0.450 -1.000 -0.020
0.450 -1.000 -0.020
0.440 -1.000 -0.020
0.440 -1.020 -0.020
0.420 -1.000 -0.020
0.420 -1.010 -0.020
0.420 -1.030 -0.020
0.410 -1.030 -0.020
0.400 -1.020 -0.020
0.390 -1.020 -0.020
0.390 -1.030 -0.020
0.390 -1.040 -0.020
0.390 -1.060 -0.020
0.380 -1.060 -0.020
0.370 -1.060 -0.020
0.370 -1.090 -0.020
0.370 -1.090 -0.020
0.370 -1.110 -0.020
0.360 -1.120 -0.020
0.360 -1.140 -0.020
0.490 -1.590 -0.030
0.480 -1.590 -0.030
0.480 -1.610 -0.030
0.470 -1.600 -0.030
0.460 -1.610 -0.030
0.450 -1.620 -0.030
0.440 -1.610 -0.030
0.420 -1.590 -0.030
0.420 -1.610 -0.030
0.410 -1.620 -0.030
0.400 -1.650 -0.030
0.390 -1.630 -0.030
0.380 -1.640 -0.030
0.370 -1.650 -0.030
0.360 -1.660 -0.030
0.350 -1.660 -0.030
0.340 -1.670 -0.030
0.330 -1.660 -0.030
0.320 -1.670 -0.030
0.320 -1.700 -0.030
0.310 -1.700 -0.030
0.300 -1.720 -0.030
0.290 -1.700 -0.030
0.270 -1.700 -0.030
0.260 -1.700 -0.030
0.260 -1.720 -0.030
0.250 -1.740 -0.030
0.240 -1.730 -0.030
0.230 -1.740 -0.030
0.210 -1.730 -0.030
0.210 -1.750 -0.030
0.190 -1.750 -0.030
0.190 -1.770 -0.030
0.170 -1.770 -0.030
0.160 -1.770 -0.030
0.150 -1.770 -0.030
0.140 -1.770 -0.030
0.130 -1.790 -0.030
0.120 -1.800 -0.030
0.110 -1.790 -0.030
0.100 -1.800 -0.030
0.090 -1.810 -0.030
0.080 -1.810 -0.030
0.070 -1.820 -0.030
0.060 -1.830 -0.030
0.050 -1.840 -0.030
0.030 -1.840 -0.030
0.020 -1.850 -0.030
0.010 -1.860 -0.030
0.000 -1.860 -0.030
0.000 1.880 -0.090
0.010 1.860 -0.090
0.020 1.860 -0.090
0.030 1.840 -0.090
0.040 1.820 -0.090
0.060 1.790 -0.090
0.070 1.780 -0.090
0.080 1.750 -0.090
0.090 1.740 -0.080
0.100 1.720 -0.080
0.110 1.720 -0.080
0.110 1.690 -0.080
0.120 1.660 -0.080
0.130 1.680 -0.080
0.140 1.670 -0.080
0.150 1.680 -0.080
0.170 1.680 -0.080
0.180 1.690 -0.080
0.190 1.710 -0.080
0.200 1.710 -0.080
0.210 1.720 -0.080
0.220 1.720 -0.080
0.240 1.730 -0.090
0.250 1.730 -0.090
0.260 1.740 -0.090
0.270 1.750 -0.090
0.280 1.760 -0.090
0.290 1.740 -0.090
0.310 1.760 -0.090
0.320 1.760 -0.090
0.330 1.790 -0.090
0.350 1.800 -0.090
0.350 1.780 -0.090
0.370 1.800 -0.090
0.380 1.810 -0.090
2.380 4.380 -0.240
2.390 4.330 -0.240
2.410 4.310 -0.240
2.440 4.290 -0.240
2.440 4.240 -0.240
2.470 4.220 -0.240
2.480 4.180 -0.240
2.510 4.170 -0.240
2.520 4.130 -0.240
2.540 4.120 -0.240
2.550 4.080 -0.230
2.570 4.050 -0.230
2.580 4.010 -0.230
2.600 3.990 -0.230
2.640 3.990 -0.230
2.640 3.940 -0.230
2.650 3.910 -0.230
2.670 3.880 -0.230
2.690 3.860 -0.230
2.700 3.820 -0.230
2.710 3.790 -0.230
2.720 3.760 -0.230
2.760 3.770 -0.230
2.760 3.710 -0.230
2.780 3.690 -0.230
2.790 3.660 -0.220
